ply
format ascii 1.0
element vertex 375
property float x
property float y
property float z
property float nx
property float ny
property float nz
end_header
-3.90840983390808105 2.57505607604980469 2.08849000930786133 -0.467648833990097046 0.776607275009155273 -0.422120481729507446
-0.0925469398498535156 5.49970006942749023 3.46688270568847656 0.202852696180343628 0.965308248996734619 -0.164410322904586792
-5.05082511901855469 5.49970006942749023 3.63324999809265137 -0.146165654063224792 0.978702664375305176 -0.144140705466270447
-2.841644287109375 5.49970006942749023 2.41293811798095703 0.460215896368026733 0.796345412731170654 -0.392473191022872925
-2.84178781509399414 5.49970006942749023 2.41298794746398926 0.0939519479870796204 0.946408867835998535 -0.309003531932830811
-5.49970006942749023 0.455985784530639648 3.82674765586853027 -0.98476022481918335 -0.107331596314907074 -0.136847317218780518
-0.000300000014249235392 2.33469557762145996 1.27981042861938477 0.959985017776489258 -0.0417618118226528168 -0.276919960975646973
-0.000300000014249235392 1.32727742195129395 5.10373067855834961 0.993769288063049316 -0.105466015636920929 -0.0360481962561607361
-0.000300000014249235392 0.446744918823242188 2.18729853630065918 0.966766119003295898 -0.108412556350231171 -0.231537878513336182
-3.7397313117980957 5.49970006942749023 3.65831947326660156 0.230720743536949158 0.78775322437286377 -0.571150302886962891
-3.73985147476196289 5.49970006942749023 3.65848112106323242 -0.105783179402351379 0.977690458297729492 -0.181469514966011047
-2.30181169509887695 5.49970006942749023 3.33223581314086914 -0.369255423545837402 0.925299644470214844 -0.0864345282316207886
-2.12774777412414551 1.74654138088226318 2.98428559303283691 0.427943319082260132 -0.12738502025604248 -0.894783616065979004
-5.49970006942749023 2.52479314804077148 2.48656249046325684 -0.995032668113708496 0.0918825790286064148 -0.0383090972900390625
-5.49970006942749023 2.50116753578186035 4.67154502868652344 -0.993909835815429688 -0.00710392044857144356 -0.10996730625629425
-5.49970006942749023 3.14894437789916992 2.48302459716796875 -0.963223576545715332 0.0247605312615633011 -0.267557859420776367
-5.49970006942749023 0.00174999237060546875 0.905820846557617188 -0.959073901176452637 -0.137029260396957397 -0.247790604829788208
-5.49970006942749023 0.885758042335510254 0.917011380195617676 -0.951598942279815674 -0.100832037627696991 -0.290331363677978516
-3.78665614128112793 2.63704299926757812 3.3002924919128418 -0.226475834846496582 -0.24383150041103363 -0.943003058433532715
-3.78730392456054688 2.63795924186706543 3.3002924919128418 -0.72363746166229248 0.629161357879638672 -0.283733606338500977
-3.78658509254455566 2.63733053207397461 3.3002924919128418 -0.149460047483444214 0.117175973951816559 -0.981800079345703125
-5.49970006942749023 3.22077393531799316 4.45475006103515625 -0.988328337669372559 0.0787240862846374512 -0.130420729517936707
-3.71530342102050781 5.49970006942749023 2.77374029159545898 0.187232330441474915 0.941583096981048584 0.279937744140625
-3.71540260314941406 5.49970006942749023 2.77358222007751465 -0.127285405993461609 0.966675639152526855 -0.22211804986000061
-5.49970006942749023 4.45785379409790039 5.08148384094238281 -0.983701109886169434 0.176320642232894897 -0.0352574214339256287
-5.49970006942749023 2.24650955200195312 5.18578624725341797 -0.995068609714508057 -0.0889689251780509949 -0.0438513346016407013
-0.930706143379211426 5.49970006942749023 2.74158549308776855 0.599517405033111572 0.678244054317474365 -0.424927860498428345
-0.930912613868713379 5.49970006942749023 2.74170923233032227 0.18796105682849884 0.960477352142333984 -0.205314189195632935
-1.0532839298248291 5.49970006942749023 4.58985710144042969 0.126220136880874634 0.986989259719848633 -0.0996026322245597839
-5.49970006942749023 2.88768696784973145 3.61640453338623047 -0.977160930633544922 0.0169925708323717117 -0.211819738149642944
-4.03827571868896484 2.39368391036987305 0.000300000014249235392 -0.375888943672180176 0.682846724987030029 -0.626440703868865967
-4.03834295272827148 2.39340066909790039 0.000300000014249235392 -0.631777524948120117 0.111723639070987701 -0.767055988311767578
-4.03751277923583984 2.3928985595703125 0.000300000014249235392 -0.17836269736289978 -0.654196619987487793 -0.734992086887359619
-4.03750181198120117 2.39312624931335449 0.000300000014249235392 -0.20048820972442627 -0.127113223075866699 -0.971414685249328613
-3.59936118125915527 2.67092561721801758 0.899901151657104492 -0.299745827913284302 0.89776301383972168 -0.322759836912155151
-5.49970006942749023 3.65670609474182129 3.15647673606872559 -0.973214328289031982 0.0347057431936264038 -0.227264896035194397
-0.546833276748657227 5.33925533294677734 0.000300000014249235392 0.781682670116424561 0.297685682773590088 -0.548046886920928955
-0.547147035598754883 5.33909511566162109 0.000300000014249235392 0.355064034461975098 0.00774291018024086952 -0.93480992317199707
-0.547338724136352539 5.33916807174682617 0.000300000014249235392 0.136100873351097107 0.105154067277908325 -0.985098481178283691
-0.000300000014249235392 1.96515464782714844 4.53928947448730469 0.994694828987121582 -0.0451466403901576996 -0.0924332737922668457
-5.49970006942749023 3.53138351440429688 4.07165050506591797 -0.975923538208007812 0.150825634598731995 -0.157558441162109375
-0.000300000014249235392 1.7049560546875 4.66341686248779297 0.996954381465911865 -0.016338840126991272 -0.0762559100985527039
-3.81960630416870117 2.97364521026611328 3.3002924919128418 -0.0756901949644088745 0.427502423524856567 -0.900839924812316895
-3.8195040225982666 2.97308897972106934 3.3002924919128418 0.334801942110061646 -0.431849181652069092 -0.83750450611114502
-3.81968116760253906 2.97322940826416016 3.3002924919128418 -0.187932446599006653 -0.0463934615254402161 -0.981085598468780518
-4.13622474670410156 5.49970006942749023 3.71667933464050293 -0.37201303243637085 0.919254779815673828 -0.128751158714294434
-3.25270605087280273 5.49970006942749023 3.13488674163818359 -0.22855028510093689 0.905880272388458252 0.356574833393096924
-3.25264906883239746 5.49970006942749023 3.13469338417053223 -0.0605819821357727051 0.968147099018096924 -0.242942124605178833
-3.72181963920593262 3.041107177734375 3.3002924919128418 -0.105854324996471405 0.119420148432254791 -0.987184643745422363
-5.49970006942749023 3.49601888656616211 3.86855077743530273 -0.98533940315246582 0.00470363488420844078 -0.170540496706962585
-5.49970006942749023 -0.0222973823547363281 5.29356765747070312 -0.966146230697631836 -0.257272571325302124 -0.0192942731082439423
-1.13411033153533936 4.1499943733215332 0.000300000014249235392 0.162710100412368774 0.0514461435377597809 -0.98533177375793457
-4.09365272521972656 5.49970006942749023 2.82537484169006348 -0.279211103916168213 0.8971710205078125 -0.342235654592514038
-0.000300000014249235392 4.06695461273193359 2.79097342491149902 0.964339733123779297 0.126321837306022644 -0.232576102018356323
-4.10678386688232422 1.60264217853546143 0.000300000014249235392 0.659448862075805664 -0.119149208068847656 -0.742247045040130615
-4.10708332061767578 1.60268211364746094 0.000300000014249235392 -0.109632790088653564 -0.027161821722984314 -0.993600964546203613
-0.000300000014249235392 3.72990608215332031 5.17845630645751953 0.993273019790649414 0.110721737146377563 -0.0339034684002399445
-5.49970006942749023 1.87882208824157715 4.37836933135986328 -0.988287687301635742 -0.0298349969089031219 -0.149657294154167175
-2.02474594116210938 5.49970006942749023 4.21152210235595703 0.0628208741545677185 0.991899847984313965 -0.110399685800075531
-4.18825435638427734 2.51079702377319336 3.3002924919128418 -0.575083255767822266 -0.334638714790344238 -0.746522665023803711
-4.18811750411987305 2.5108799934387207 3.3002924919128418 -0.296102523803710938 -0.161318317055702209 -0.941434860229492188
-1.96108603477478027 3.93424725532531738 0.000300000014249235392 0.0134951295331120491 0.0501893572509288788 -0.998648524284362793
-0.000300000014249235392 -0.609565258026123047 2.64249849319458008 0.967558741569519043 -0.175194829702377319 -0.182035282254219055
-0.000300000014249235392 2.19614601135253906 2.34179520606994629 0.974003076553344727 0.0159354191273450851 -0.225973531603813171
-3.4343712329864502 5.49970006942749023 2.610504150390625 0.0166628696024417877 0.902879595756530762 -0.429570645093917847
-3.43445229530334473 5.49970006942749023 2.61049532890319824 -0.219582989811897278 0.870731711387634277 -0.440010815858840942
-3.43429279327392578 5.49970006942749023 2.61074590682983398 -0.0677326619625091553 0.971803903579711914 -0.225852727890014648
-5.49970006942749023 1.85716748237609863 5.18945693969726562 -0.998874068260192871 -0.0280344802886247635 -0.0382711365818977356
-3.41608452796936035 4.06176137924194336 3.30029201507568359 -0.328538894653320312 -0.10765945166349411 -0.938334465026855469
-0.000300000014249235392 0.113519906997680664 4.06804704666137695 0.977861166000366211 -0.165146321058273315 -0.128507167100906372
-3.66309428215026855 -0.0796689987182617188 0.000300000014249235392 -0.0212410613894462585 -0.111201323568820953 -0.993570864200592041
-2.69016647338867188 0.344483613967895508 0.000300000014249235392 0.00226246635429561138 -0.0911612361669540405 -0.995833516120910645
-5.49970006942749023 -0.240582942962646484 3.42481184005737305 -0.973413646221160889 -0.159920036792755127 -0.16398581862449646
-0.000300000014249235392 3.34786462783813477 4.69642305374145508 0.995323300361633301 -0.00959961675107479095 -0.0961209386587142944
-0.000300000014249235392 0.983230471611022949 2.99964547157287598 0.96820521354675293 -0.143615081906318665 -0.204825103282928467
-2.39506030082702637 -0.898907899856567383 0.000300000014249235392 -0.251147806644439697 0.539654910564422607 -0.803552865982055664
-2.39495086669921875 -0.899153232574462891 0.000300000014249235392 0.0520956888794898987 -0.144306808710098267 -0.988160610198974609
-4.142059326171875 2.97275328636169434 3.3002924919128418 -0.246507406234741211 -0.296513408422470093 -0.922666668891906738
-2.2492215633392334 5.49970006942749023 1.19996237754821777 -0.355938732624053955 0.431885600090026855 -0.828723371028900146
-2.24897217750549316 5.49970006942749023 1.20046150684356689 0.00695209857076406479 0.968993961811065674 -0.246986418962478638
-0.000300000014249235392 5.35674238204956055 2.33195304870605469 0.962142825126647949 0.166501641273498535 -0.215773984789848328
-5.49970006942749023 3.4536745548248291 3.46513247489929199 -0.976924896240234375 0.0546273775398731232 -0.206478938460350037
-1.55495119094848633 5.49970006942749023 4.58310985565185547 0.628802120685577393 0.670322000980377197 0.394051134586334229
-1.55518448352813721 5.49970006942749023 4.58290338516235352 0.15751667320728302 0.982649445533752441 -0.0979210957884788513
-5.49970006942749023 0.253173589706420898 1.71320497989654541 -0.96260148286819458 -0.158631935715675354 -0.219622820615768433
-5.49970006942749023 4.35930061340332031 5.01756954193115234 -0.958657383918762207 0.237300068140029907 0.157049387693405151
-0.000300000014249235392 1.15012574195861816 3.99763345718383789 0.976556301116943359 -0.165938451886177063 -0.137121051549911499
-0.000300000014249235392 -0.00871634483337402344 0.196847677230834961 0.953208267688751221 -0.136240676045417786 -0.269874662160873413
-0.000300000014249235392 -0.283334732055664062 4.98317718505859375 0.960355877876281738 -0.274979084730148315 -0.0458588190376758575
-3.05231952667236328 0.969058632850646973 0.000300000014249235392 0.0320021584630012512 -0.0946493446826934814 -0.994996070861816406
-0.000300000014249235392 2.27918553352355957 2.8883969783782959 0.978655219078063965 0.0471303611993789673 -0.200031310319900513
-3.31709694862365723 3.91964077949523926 3.3002922534942627 0.70480656623840332 0.0609066449105739594 -0.706780016422271729
-3.31726193428039551 3.91979718208312988 3.3002922534942627 0.356911271810531616 0.484851837158203125 -0.79845660924911499
-3.31745553016662598 3.91938090324401855 3.3002922534942627 0.644713401794433594 0.335115671157836914 -0.687053203582763672
-3.31775236129760742 3.91927003860473633 3.3002922534942627 -0.0502277687191963196 0.1179971843957901 -0.991742789745330811
-3.06189894676208496 5.49970006942749023 5.16171741485595703 -0.0320280715823173523 0.998472332954406738 -0.0450244806706905365
-2.73895430564880371 1.59723019599914551 1.57207798957824707 0.876363277435302734 -0.37932276725769043 -0.296819031238555908
-0.000300000014249235392 2.5354006290435791 3.64221668243408203 0.978859663009643555 -0.0345058441162109375 -0.201601386070251465
-2.71762776374816895 5.49970006942749023 4.84875202178955078 0.321113914251327515 0.929004073143005371 -0.183948710560798645
-2.71734929084777832 5.49970006942749023 4.84855842590332031 0.746284425258636475 0.508048117160797119 -0.430054247379302979
-2.71772027015686035 5.49970006942749023 4.84875059127807617 0.222051173448562622 0.95509946346282959 -0.196158811450004578
-5.49970006942749023 -0.632847309112548828 5.30480670928955078 -0.979669928550720215 -0.200185149908065796 -0.0131391827017068863
-3.2377474308013916 3.43841695785522461 3.3002922534942627 -0.325120508670806885 0.0589495934545993805 -0.943833470344543457
-3.23683762550354004 3.4383237361907959 3.3002922534942627 0.673791348934173584 -0.29873812198638916 -0.675840675830841064
-3.23712015151977539 3.43849444389343262 3.3002922534942627 0.0550303421914577484 0.125771895051002502 -0.990531682968139648
-1.19211173057556152 5.49970006942749023 5.30854511260986328 0.121472634375095367 0.992511630058288574 -0.0128494091331958771
-3.70145606994628906 3.04877996444702148 3.3002924919128418 -0.134866788983345032 0.0964432805776596069 -0.986158967018127441
-2.29359102249145508 5.49970006942749023 5.08862876892089844 -0.313389867544174194 0.16115279495716095 -0.935850739479064941
-2.29308962821960449 5.49970006942749023 5.09020757675170898 -0.232898131012916565 0.855014026165008545 -0.463367432355880737
-2.29288434982299805 5.49970006942749023 5.09064197540283203 -0.0407294072210788727 0.998127460479736328 -0.0456351414322853088
-3.33427143096923828 5.49970006942749023 1.78145933151245117 -0.0074487137608230114 0.989482760429382324 -0.144458428025245667
-3.33466124534606934 5.49970006942749023 1.78115606307983398 -0.655609965324401855 0.652896583080291748 -0.379343628883361816
-3.33438491821289062 5.49970006942749023 1.78124737739562988 -0.0795674696564674377 0.960748553276062012 -0.26576542854309082
-0.000300000014249235392 5.06459903717041016 4.53424501419067383 0.968281090259552002 0.237596064805984497 -0.077329099178314209
-0.000300000014249235392 2.25672245025634766 3.61330270767211914 0.978924870491027832 -0.00497192377224564552 -0.204160034656524658
-3.79221391677856445 5.49970006942749023 4.90613842010498047 -0.138283312320709229 0.988641738891601562 -0.0588647350668907166
-4.75934219360351562 5.49970006942749023 3.88968038558959961 -0.197958424687385559 0.969372153282165527 -0.145361617207527161
-0.466372489929199219 5.49970006942749023 0.556405067443847656 0.121895477175712585 0.953040540218353271 -0.277227640151977539
-4.32553339004516602 5.49970006942749023 4.39215564727783203 -0.611247360706329346 0.48232501745223999 -0.62748640775680542
-4.32517242431640625 5.49970006942749023 4.39251899719238281 -0.062799893319606781 0.99417424201965332 -0.0875992253422737122
-4.3251795768737793 5.49970006942749023 4.39249944686889648 -0.0719040259718894958 0.990910947322845459 -0.113688968122005463
-0.000300000014249235392 -0.325743913650512695 4.28233575820922852 0.973038852214813232 -0.21425628662109375 -0.0853787809610366821
-0.635483741760253906 5.49970006942749023 4.99823379516601562 0.590178787708282471 0.781128287315368652 -0.203783124685287476
-0.63620305061340332 5.49970006942749023 4.99848556518554688 0.148765057325363159 0.987749636173248291 -0.0471114479005336761
-0.508454799652099609 5.49970006942749023 0.123528957366943359 -0.13207562267780304 0.881675362586975098 -0.452994972467422485
-0.000300000014249235392 2.97516679763793945 4.54540777206420898 0.988138914108276367 0.108704879879951477 -0.108464844524860382
-2.59783601760864258 4.01946544647216797 0.000300000014249235392 -0.0101810265332460403 0.0447830334305763245 -0.99894481897354126
-5.49970006942749023 0.210316658020019531 2.93633365631103516 -0.959309577941894531 -0.169009342789649963 -0.22618769109249115
-5.49970006942749023 1.71575820446014404 4.87862300872802734 -0.996000051498413086 -0.0399190597236156464 -0.0799397751688957214
-5.49970006942749023 2.81551742553710938 5.2119293212890625 -0.999381184577941895 -0.00383070833049714565 -0.0349648334085941315
-2.58398771286010742 5.49970006942749023 4.37036228179931641 0.495448023080825806 0.759743750095367432 0.42109447717666626
-2.58418011665344238 5.49970006942749023 4.37016773223876953 0.00997964758425951004 0.995508074760437012 -0.0941483229398727417
-3.15806794166564941 4.04704904556274414 3.30029201507568359 0.0723115280270576477 0.689901351928710938 -0.72028273344039917
-3.15810298919677734 4.04701089859008789 3.30029201507568359 -0.0123910782858729362 0.639174699783325195 -0.768961727619171143
-2.420166015625 5.49970006942749023 1.19551408290863037 -0.0175390560179948807 0.958942234516143799 -0.283058315515518188
-0.000300000014249235392 3.71313977241516113 2.61614155769348145 0.964063525199890137 0.144733235239982605 -0.222786471247673035
-5.49970006942749023 3.52056312561035156 4.96636867523193359 -0.997794568538665771 0.034894995391368866 -0.0564639531075954437
-5.49970006942749023 3.81474733352661133 3.94408178329467773 -0.977401852607727051 0.138755142688751221 -0.159475594758987427
-0.000300000014249235392 3.28319764137268066 3.35427474975585938 0.980724036693572998 0.0555103197693824768 -0.187346696853637695
-1.59485554695129395 5.49970006942749023 0.885770797729492188 0.227339968085289001 0.882012844085693359 -0.412758886814117432
-1.59602642059326172 5.49970006942749023 0.887891173362731934 0.00449740979820489883 0.921805620193481445 0.387626230716705322
-1.59600329399108887 5.49970006942749023 0.887686610221862793 0.0790120065212249756 0.964413046836853027 -0.252318203449249268
-5.49970006942749023 2.9428408145904541 3.82365703582763672 -0.978364467620849609 0.0627590492367744446 -0.197139978408813477
-2.45743346214294434 4.65721607208251953 0.000300000014249235392 0.748850047588348389 0.103594489395618439 -0.654592812061309814
-2.45778131484985352 4.6571955680847168 0.000300000014249235392 -0.0157135482877492905 0.0901589542627334595 -0.995803415775299072
-5.49970006942749023 3.4289696216583252 3.6224055290222168 -0.978316545486450195 0.129196390509605408 -0.161879688501358032
-3.5943610668182373 3.84544491767883301 5.49970006942749023 -0.463092505931854248 -0.0644911602139472961 0.883960545063018799
-3.59417915344238281 3.84552168846130371 5.49970006942749023 0.0808522701263427734 0.179301351308822632 0.980466127395629883
-5.49970006942749023 -0.0327899456024169922 5.21557235717773438 -0.903802037239074707 -0.410384535789489746 0.121352039277553558
-5.49970006942749023 -0.585782527923583984 0.739035129547119141 -0.953650116920471191 -0.154096364974975586 -0.258467793464660645
-3.11869144439697266 4.02991771697998047 3.3002922534942627 -0.60062873363494873 0.145901694893836975 -0.786102950572967529
-3.11845684051513672 4.02991867065429688 3.3002922534942627 0.0178388599306344986 0.184945598244667053 -0.98258674144744873
-3.41985440254211426 3.96492409706115723 3.30029201507568359 -0.0725003704428672791 0.0767315104603767395 -0.994412362575531006
-3.66231274604797363 1.95939385890960693 5.49970006942749023 -0.0920773819088935852 -0.0753575786948204041 0.992896199226379395
-5.49970006942749023 4.17642641067504883 5.3813776969909668 -0.978405416011810303 0.206481128931045532 -0.00939457584172487259
-1.40217328071594238 5.49970006942749023 5.3120274543762207 0.063309110701084137 0.997862577438354492 -0.0161884035915136337
-0.000300000014249235392 -0.237177848815917969 4.91263580322265625 0.961194038391113281 -0.27200847864151001 -0.0460139401257038116
-1.45741820335388184 5.49970006942749023 2.55351352691650391 0.146913573145866394 0.963041305541992188 -0.225760534405708313
-0.000300000014249235392 3.99310874938964844 3.85506057739257812 0.982360959053039551 0.0706268772482872009 -0.173143461346626282
-0.000300000014249235392 1.73577821254730225 5.39260482788085938 0.999402880668640137 -0.0334669798612594604 -0.00858681648969650269
-5.49970006942749023 2.2013247013092041 5.34729576110839844 -0.990807175636291504 -0.134691759943962097 -0.0126166632398962975
-4.03144359588623047 5.49970006942749023 3.6853179931640625 -0.0615717321634292603 0.983926057815551758 -0.167625859379768372
-4.15784835815429688 5.49970006942749023 4.81263446807861328 0.388691961765289307 0.890783607959747314 -0.235421061515808105
-4.15823984146118164 5.49970006942749023 4.8128657341003418 0.497362136840820312 0.824905693531036377 -0.268629014492034912
-4.15847682952880859 5.49970006942749023 4.81293821334838867 -0.182953014969825745 0.979682326316833496 -0.0821618139743804932
-0.000300000014249235392 0.624937057495117188 2.60039281845092773 0.969717741012573242 -0.161266535520553589 -0.183413654565811157
-2.7056729793548584 5.49970006942749023 2.76262307167053223 0.131316214799880981 0.954398453235626221 -0.268103510141372681
-5.49970006942749023 4.08060359954833984 4.85893630981445312 -0.976182341575622559 0.208776369690895081 -0.0589955784380435944
-5.49970006942749023 0.576523065567016602 4.84604787826538086 -0.973401665687561035 -0.218327254056930542 -0.0694423317909240723
-0.000300000014249235392 4.44198846817016602 5.02521324157714844 0.98739933967590332 0.14904467761516571 -0.0531812384724617004
-3.43115520477294922 3.90440201759338379 3.3002922534942627 0.106271125376224518 -0.209708213806152344 -0.971971690654754639
-3.43121170997619629 3.90452051162719727 3.3002922534942627 -0.0781014561653137207 0.176094844937324524 -0.981269955635070801
-3.36766290664672852 2.74280095100402832 2.36959123611450195 -0.395300030708312988 0.868924200534820557 -0.297839999198913574
-5.25405693054199219 5.49970006942749023 5.24278116226196289 -0.147050768136978149 0.988976359367370605 -0.0173712130635976791
-0.000300000014249235392 2.98404908180236816 2.97791862487792969 0.982398748397827148 0.0464166142046451569 -0.180936649441719055
-0.000300000014249235392 4.27841949462890625 5.32240104675292969 0.991204977035522461 0.13181661069393158 -0.0117054423317313194
-3.44039750099182129 3.91729068756103516 3.3002922534942627 0.0398698598146438599 0.578986406326293945 -0.814361751079559326
-3.44059610366821289 3.91695857048034668 3.3002922534942627 -0.301560342311859131 0.59321296215057373 -0.746431291103363037
-3.44049501419067383 3.9167931079864502 3.3002922534942627 -0.0654201209545135498 0.235666617751121521 -0.969629526138305664
-5.49970006942749023 3.20688199996948242 2.92593264579772949 -0.96519923210144043 0.107067905366420746 -0.238593205809593201
-2.40127229690551758 5.49970006942749023 0.379368305206298828 0.388409227132797241 0.564340770244598389 -0.728462636470794678
-2.40147066116333008 5.49970006942749023 0.379665374755859375 0.0254495963454246521 0.957361936569213867 -0.287767797708511353
-3.41100883483886719 3.51303601264953613 5.49970006942749023 0.0964840725064277649 0.362752616405487061 0.926877021789550781
-3.41100645065307617 3.51293373107910156 5.49970006942749023 0.11164555698633194 0.0494821146130561829 0.992515325546264648
-4.16102695465087891 5.49970006942749023 3.96877527236938477 -0.0696711689233779907 0.985146224498748779 -0.156948208808898926
-5.49970006942749023 4.32680511474609375 4.29821586608886719 -0.970732450485229492 0.196581408381462097 -0.137964442372322083
-0.000300000014249235392 0.723728418350219727 5.29658222198486328 0.986407279968261719 -0.16307280957698822 -0.020192660391330719
-0.000300000014249235392 2.43875980377197266 5.38944435119628906 0.996502578258514404 0.0826869159936904907 -0.0120556438341736794
-0.000300000014249235392 -0.0499346256256103516 0.492978811264038086 0.955801129341125488 -0.125504329800605774 -0.265881061553955078
-0.000300000014249235392 -0.468688249588012695 4.84226703643798828 0.974222183227539062 -0.219354733824729919 -0.0526738502085208893
-2.63185358047485352 1.95612633228302002 0.930863320827484131 0.915972709655761719 -0.297236979007720947 0.269525736570358276
-2.63185739517211914 1.95611298084259033 0.930679559707641602 0.888213574886322021 -0.334444046020507812 -0.314998060464859009
-3.32021546363830566 2.95590114593505859 5.49970006942749023 0.153643369674682617 -0.156944349408149719 0.975583016872406006
-1.44841587543487549 5.49970006942749023 0.676507949829101562 0.0666361749172210693 0.955965816974639893 -0.28581276535987854
-5.49970006942749023 1.88508248329162598 2.399322509765625 -0.968413949012756348 0.0120472321286797523 -0.249056488275527954
-0.817731499671936035 5.49970006942749023 2.86429595947265625 0.359104424715042114 0.93237769603729248 -0.0414223521947860718
-0.818177342414855957 5.49970006942749023 2.86401748657226562 0.130858287215232849 0.964480042457580566 -0.229465082287788391
-0.000300000014249235392 -0.252320051193237305 4.82729339599609375 0.981336474418640137 -0.181618049740791321 -0.0631949380040168762
-1.53630697727203369 4.45729780197143555 0.000300000014249235392 -0.232570022344589233 0.0232061799615621567 -0.972302675247192383
-1.5362170934677124 4.45731830596923828 0.000300000014249235392 0.0602048784494400024 0.0909812599420547485 -0.994031012058258057
-1.97146177291870117 5.49970006942749023 2.74919342994689941 0.331289529800415039 0.899587035179138184 -0.28458818793296814
-1.97201085090637207 5.49970006942749023 2.74848031997680664 -0.277278661727905273 0.319113075733184814 -0.906246840953826904
-1.97174489498138428 5.49970006942749023 2.74925518035888672 0.0172315165400505066 0.968353509902954102 -0.248986810445785522
-2.98764371871948242 1.55271327495574951 0.000300000014249235392 -0.653610110282897949 0.326687246561050415 -0.682692646980285645
-2.98732900619506836 1.55261170864105225 0.000300000014249235392 0.0908717066049575806 0.137839779257774353 -0.986277103424072266
-2.98741555213928223 1.5524287223815918 0.000300000014249235392 -0.0242874771356582642 -0.106847964227199554 -0.993978619575500488
-0.7553863525390625 3.43318605422973633 0.000300000014249235392 0.0735702663660049438 -0.145978733897209167 -0.986548304557800293
-0.755281805992126465 3.43346118927001953 0.000300000014249235392 0.147583439946174622 0.0477405078709125519 -0.98789668083190918
-2.56253457069396973 5.49970006942749023 4.64258909225463867 0.764883041381835938 0.500756382942199707 -0.405212253332138062
-2.56294012069702148 5.49970006942749023 4.64275741577148438 0.167476117610931396 0.956807255744934082 -0.23763759434223175
-0.000300000014249235392 3.42149496078491211 3.7528226375579834 0.980718791484832764 0.0780744776129722595 -0.179150745272636414
-3.55461788177490234 5.49970006942749023 4.51535320281982422 -0.417390376329421997 0.907510459423065186 -0.0470120534300804138
-3.55449867248535156 5.49970006942749023 4.51532983779907227 -0.0609605498611927032 0.989937305450439453 -0.127702206373214722
-5.49970006942749023 2.28455901145935059 4.46799564361572266 -0.992658495903015137 -0.00257432693615555763 -0.120923183858394623
-1.71910083293914795 5.49970006942749023 5.34341716766357422 -0.0916274338960647583 0.828324258327484131 0.552705347537994385
-1.71904265880584717 5.49970006942749023 5.34321212768554688 0.0832323655486106873 0.996386289596557617 -0.016931433230638504
-0.000300000014249235392 3.20906281471252441 3.78265857696533203 0.97711491584777832 0.108432754874229431 -0.182999581098556519
-2.37018585205078125 2.70649623870849609 0.822162926197052002 -0.548913002014160156 -0.645149648189544678 -0.531485199928283691
-2.37008547782897949 2.7064664363861084 0.822084784507751465 -0.270924806594848633 -0.675535917282104492 -0.685748517513275146
-2.36890697479248047 2.70611476898193359 0.828025698661804199 0.329083234071731567 -0.446155697107315063 -0.83225560188293457
-2.36920166015625 2.70620250701904297 0.828640758991241455 0.00481656938791275024 -0.919799506664276123 -0.392359077930450439
-2.26130032539367676 5.49970006942749023 3.98261499404907227 -0.0513339824974536896 0.970115363597869873 0.237152069807052612
-0.000300000014249235392 2.58111357688903809 4.59876918792724609 0.995524168014526367 -0.00487347925081849098 -0.0943810194730758667
-0.000300000014249235392 3.10823822021484375 4.05234909057617188 0.988319516181945801 0.0245714224874973297 -0.150401890277862549
-5.49970006942749023 1.03042149543762207 5.00571107864379883 -0.980121135711669922 -0.19212011992931366 -0.0495210066437721252
-4.68012905120849609 5.49970006942749023 5.14674615859985352 -0.17084464430809021 0.984531402587890625 -0.0388583093881607056
-4.21597385406494141 2.47964715957641602 2.23494720458984375 -0.445424467325210571 0.851146161556243896 -0.277753829956054688
-0.000300000014249235392 1.9290308952331543 1.42351090908050537 0.958810031414031982 -0.0725503265857696533 -0.274626463651657104
-0.000299761595670133829 1.45102381706237793 1.88151860237121582 0.9010886549949646 -0.421755015850067139 0.100806325674057007
-2.06677103042602539 2.41822695732116699 1.65029633045196533 0.220947414636611938 -0.517802000045776367 -0.826476395130157471
-2.06679081916809082 2.41856789588928223 1.65029633045196533 0.510672330856323242 -0.488530099391937256 -0.707497060298919678
-2.06700038909912109 2.41875457763671875 1.65029633045196533 0.0233465153723955154 -0.0682562142610549927 -0.997394561767578125
-0.000300000014249235392 0.242480754852294922 1.77421510219573975 0.963209629058837891 -0.135727152228355408 -0.231959551572799683
-0.000300000014249235392 5.09386301040649414 4.15238046646118164 0.966308355331420898 0.220041036605834961 -0.133529290556907654
-4.77472400665283203 1.19772553443908691 0.000300000014249235392 0.19101792573928833 -0.608366489410400391 -0.770326018333435059
-4.77492666244506836 1.19779431819915771 0.000300000014249235392 -0.349616438150405884 -0.458118468523025513 -0.817248821258544922
-4.77467918395996094 1.19792890548706055 0.000300000014249235392 -0.245429500937461853 -0.730038106441497803 -0.637815475463867188
-4.77459239959716797 1.19823622703552246 0.000300000014249235392 -0.0940506383776664734 -0.118808850646018982 -0.988452732563018799
-3.10789036750793457 5.49970006942749023 1.89173233509063721 -0.0414555743336677551 0.963192939758300781 -0.265595197677612305
-1.79985344409942627 5.49970006942749023 4.87707233428955078 0.519600510597229004 0.727452635765075684 -0.448138177394866943
-1.79987192153930664 5.49970006942749023 4.87712764739990234 0.513936221599578857 0.787700414657592773 -0.339702218770980835
-1.60598492622375488 5.49970006942749023 3.43754959106445312 0.0326941646635532379 0.986208856105804443 -0.162243872880935669
-5.26748418807983398 2.25805568695068359 0.000300000014249235392 -0.422884553670883179 -0.0925971642136573792 -0.901440143585205078
-4.10363340377807617 1.52528536319732666 0.000300000014249235392 0.380250692367553711 0.514818370342254639 -0.768356263637542725
-4.10381460189819336 1.52507257461547852 0.000300000014249235392 -0.108554169535636902 -0.0389925688505172729 -0.993325471878051758
-0.0209209918975830078 2.46178889274597168 0.000300000014249235392 0.128831133246421814 -0.004669159185141325 -0.991655468940734863
-5.49970006942749023 2.06430411338806152 0.549564361572265625 -0.961549222469329834 -0.0305995121598243713 -0.272922396659851074
-2.23192310333251953 5.49970006942749023 5.31378269195556641 0.283528715372085571 0.95311051607131958 0.105790816247463226
-5.49970006942749023 2.66982436180114746 4.91429233551025391 -0.995475053787231445 -0.0699004083871841431 -0.0643677562475204468
-4.09844350814819336 5.49970006942749023 4.01408100128173828 -0.145193487405776978 0.979205071926116943 -0.141690686345100403
-1.02696835994720459 5.49970006942749023 0.573812007904052734 -0.445428997278213501 0.890672802925109863 -0.0910767242312431335
-1.02679216861724854 5.49970006942749023 0.573761940002441406 0.0842520520091056824 0.962059736251831055 -0.259504556655883789
-5.49970006942749023 5.15799856185913086 4.89206695556640625 -0.966234087944030762 0.250040143728256226 -0.0622221678495407104
-2.485137939453125 5.49970006942749023 1.342507004737854 -0.671489536762237549 0.736772835254669189 0.0791679695248603821
-2.48487186431884766 5.49970006942749023 1.342399001121521 -0.022784791886806488 0.969287633895874023 -0.244871601462364197
-2.58461618423461914 5.37799930572509766 0.000300000014249235392 -0.0256017781794071198 0.135351076722145081 -0.990466833114624023
-5.49970006942749023 2.98871564865112305 4.38203525543212891 -0.988214671611785889 -0.00381308002397418022 -0.153026789426803589
-2.4449312686920166 5.49970006942749023 2.46711349487304688 -0.125354185700416565 0.509293079376220703 -0.85141456127166748
-2.4448695182800293 5.49970006942749023 2.46753907203674316 -0.039055507630109787 0.968808293342590332 -0.244714349508285522
-5.02526187896728516 5.49970006942749023 4.48879575729370117 0.289218634366989136 0.858012735843658447 -0.424460440874099731
-5.02542304992675781 5.49970006942749023 4.48891639709472656 -0.195199653506278992 0.976649284362792969 -0.0897393003106117249
-3.069488525390625 5.49970006942749023 3.36997079849243164 0.507280707359313965 0.859510898590087891 0.0625084042549133301
-3.06967663764953613 5.49970006942749023 3.36988162994384766 -0.0359904579818248749 0.975112199783325195 -0.218770995736122131
-5.49970006942749023 0.974977970123291016 2.99270009994506836 -0.965683937072753906 -0.12370242178440094 -0.228368565440177917
-1.1826179027557373 5.49970006942749023 4.80998134613037109 -0.32264980673789978 0.686019361019134521 -0.652130842208862305
-1.18242752552032471 5.49970006942749023 4.81015253067016602 0.151878312230110168 0.924000144004821777 -0.350936949253082275
-0.000300000014249235392 5.33786296844482422 5.42690467834472656 0.981724977493286133 0.190262705087661743 -0.00401125429198145866
-0.000300000014249235392 5.10710763931274414 2.62900638580322266 0.960551142692565918 0.160469233989715576 -0.227136597037315369
-5.49970006942749023 1.90028619766235352 0.860097408294677734 -0.965260624885559082 -0.0569769740104675293 -0.255000978708267212
-3.84771156311035156 2.93998527526855469 3.3002924919128418 -0.187781572341918945 -0.0306654926389455795 -0.981732070446014404
-3.84760761260986328 2.94004154205322266 3.3002924919128418 0.151660040020942688 0.153178796172142029 -0.976491391658782959
-3.84776997566223145 2.93990969657897949 3.3002924919128418 -0.0629398748278617859 -0.0197340492159128189 -0.997822165489196777
-3.01866412162780762 3.25537610054016113 3.3002924919128418 -0.190950661897659302 0.08931751549243927 -0.977527618408203125
-5.49970006942749023 0.736701011657714844 3.50023078918457031 -0.962195873260498047 -0.211730912327766418 -0.171315521001815796
-5.49970006942749023 2.45812201499938965 3.52404332160949707 -0.974626302719116211 0.073490731418132782 -0.211429685354232788
-0.000300000014249235392 3.3288111686706543 5.32082939147949219 0.997434139251708984 0.0694912895560264587 -0.0172060746699571609
-5.49970006942749023 5.21372127532958984 4.94730234146118164 -0.969063401222229004 0.241200104355812073 -0.0523318126797676086
-0.000300000014249235392 5.35674428939819336 5.20368480682373047 0.983997702598571777 0.17656978964805603 -0.0239067170768976212
-5.49970006942749023 3.32818698883056641 5.11048078536987305 -0.992151856422424316 0.115633405745029449 -0.0475771762430667877
-5.49970006942749023 0.00249624252319335938 5.42631196975708008 -0.984805822372436523 -0.173603475093841553 -0.00437785638496279716
-0.000300000014249235392 5.24798488616943359 4.92598152160644531 0.974624097347259521 0.219533249735832214 -0.0437377616763114929
-1.06853306293487549 5.49970006942749023 1.17071497440338135 -0.436889797449111938 0.882075726985931396 -0.176265880465507507
-1.06808614730834961 5.49970006942749023 1.17068040370941162 0.0490293130278587341 0.965504348278045654 -0.255729228258132935
-0.000300000014249235392 2.85926485061645508 2.52071976661682129 0.964474022388458252 -0.0162491146475076675 -0.263677209615707397
-0.000300000014249235392 4.41766023635864258 5.13256645202636719 0.987204074859619141 0.15713222324848175 -0.0271578747779130936
-0.000300000014249235392 5.01044750213623047 1.88292932510375977 0.965162158012390137 0.144538730382919312 -0.218106508255004883
-2.42154812812805176 3.69307470321655273 5.49970006942749023 -0.50563281774520874 0.181062817573547363 0.843535184860229492
-2.42139101028442383 3.69309687614440918 5.49970006942749023 -0.072152160108089447 0.276457220315933228 0.958313822746276855
-3.29043817520141602 2.83331966400146484 3.3002924919128418 -0.0417735576629638672 0.0990864187479019165 -0.994201540946960449
-5.49970006942749023 0.842888832092285156 5.39133930206298828 -0.991043567657470703 -0.133332833647727966 -0.00740930857136845589
-2.8652031421661377 4.35336494445800781 0.000300000014249235392 -0.0219412371516227722 0.0725193172693252563 -0.997125566005706787
-2.13521170616149902 5.49970006942749023 3.90908265113830566 -0.045826982706785202 0.926050782203674316 -0.374606162309646606
-3.77539753913879395 2.87080955505371094 3.3002924919128418 -0.399187356233596802 0.237464830279350281 -0.885584533214569092
-3.77538490295410156 2.8708348274230957 3.3002924919128418 -0.359568297863006592 0.310251086950302124 -0.880031228065490723
-3.76559996604919434 3.2836298942565918 5.49970006942749023 0.0246687084436416626 0.00495397439226508141 0.9996834397315979
-0.000300000014249235392 1.3465571403503418 5.12798595428466797 0.996240496635437012 -0.0756235197186470032 -0.0422600097954273224
-0.000300000014249235392 4.31268215179443359 2.96176767349243164 0.968240261077880859 0.164560213685035706 -0.188230261206626892
-4.00875759124755859 5.49970006942749023 4.79661941528320312 -0.233083486557006836 0.922453939914703369 0.307816088199615479
-4.0088348388671875 5.49970006942749023 4.79664993286132812 -0.424514412879943848 0.830366730690002441 0.360941171646118164
-4.00844478607177734 5.49970006942749023 4.79620552062988281 -0.102835506200790405 0.992664992809295654 -0.063568897545337677
-5.49970006942749023 1.14791953563690186 4.83837795257568359 -0.980797648429870605 -0.187811940908432007 -0.0525596179068088531
-4.71037054061889648 5.49970006942749023 4.34091567993164062 -0.29740026593208313 0.954522550106048584 0.020969366654753685
-5.49970006942749023 5.17143917083740234 3.74989104270935059 -0.957822024822235107 0.249316409230232239 -0.142892047762870789
-0.000300000014249235392 5.32669401168823242 2.53093671798706055 0.925150156021118164 -0.156360581517219543 -0.345902562141418457
-1.02344119548797607 5.49970006942749023 2.9134979248046875 0.498653501272201538 0.759780406951904297 -0.417227089405059814
-2.21672201156616211 5.49970006942749023 4.02454853057861328 0.0470264479517936707 0.987598180770874023 -0.149793848395347595
-3.45689797401428223 3.19581890106201172 3.3002924919128418 -0.638563632965087891 -0.327313452959060669 -0.696492910385131836
-3.4566655158996582 3.1959691047668457 3.3002924919128418 -0.14071829617023468 0.0305009689182043076 -0.989579677581787109
-3.3448646068572998 2.74987292289733887 1.32796669006347656 -0.262722760438919067 0.909470677375793457 -0.322241812944412231
-0.000300000014249235392 3.13165426254272461 0.225047111511230469 0.961246490478515625 0.0670602843165397644 -0.267409771680831909
-0.000300000014249235392 3.53498721122741699 4.91481781005859375 0.994492173194885254 0.0718236193060874939 -0.0763322263956069946
-5.49970006942749023 0.819026947021484375 5.15729331970214844 -0.972041845321655273 -0.23323388397693634 -0.027139812707901001
-5.49970006942749023 3.17896533012390137 4.78200721740722656 -0.991902530193328857 0.0916759222745895386 -0.0878909602761268616
-5.49970006942749023 4.37780380249023438 4.23153209686279297 -0.968429207801818848 0.210677966475486755 -0.133265018463134766
-5.49970006942749023 2.17911171913146973 3.68646812438964844 -0.936777591705322266 -0.304791241884231567 0.171901136636734009
-4.16551780700683594 2.86377811431884766 3.3002924919128418 -0.435636550188064575 -0.0523905940353870392 -0.898596644401550293
-3.47197246551513672 0.616129398345947266 0.000300000014249235392 -0.0143572743982076645 -0.145039275288581848 -0.989321708679199219
-1.04671955108642578 5.49970006942749023 4.91861629486083984 0.314063191413879395 0.908215641975402832 0.276601910591125488
-0.000300000014249235392 2.50073957443237305 3.10945987701416016 0.968635201454162598 -0.0268073957413434982 -0.247036874294281006
-0.000300000014249235392 4.02084493637084961 5.18336915969848633 0.991759955883026123 0.122756846249103546 -0.0366440378129482269
-5.49970006942749023 4.7050933837890625 4.17022323608398438 -0.973317563533782959 0.189745888113975525 -0.129032403230667114
-2.16704058647155762 5.49970006942749023 3.63074159622192383 0.146057024598121643 0.962889730930328369 -0.226959735155105591
-0.000300000014249235392 5.10823726654052734 3.98599839210510254 0.967776715755462646 0.228022173047065735 -0.106836527585983276
-5.13578891754150391 5.49970006942749023 5.28868865966796875 -0.0740594640374183655 0.668984115123748779 0.739577829837799072
-5.13590526580810547 5.49970006942749023 5.28839445114135742 -0.444565236568450928 0.888793706893920898 0.111388444900512695
-5.09886741638183594 5.49970006942749023 2.61102390289306641 -0.13267005980014801 0.965015053749084473 -0.226151615381240845
-3.54645967483520508 5.49970006942749023 4.72733354568481445 0.136081889271736145 0.99065101146697998 0.00960230827331542969
-3.54640007019042969 5.49970006942749023 4.72731351852416992 0.318660199642181396 0.946313858032226562 -0.05427531898021698
-3.54719376564025879 5.49970006942749023 4.72729873657226562 -0.549043834209442139 0.831146955490112305 -0.088008485734462738
-3.54701328277587891 5.49970006942749023 4.7273097038269043 -0.0589418113231658936 0.995913386344909668 -0.0684277266263961792
-1.7339332103729248 5.49970006942749023 5.32376003265380859 -0.170730516314506531 0.934861660003662109 -0.311263173818588257
-1.73384678363800049 5.49970006942749023 5.32385635375976562 0.104950256645679474 0.994396686553955078 -0.0126745682209730148
-2.68485021591186523 1.5575706958770752 1.65029633045196533 0.0952489599585533142 -0.977042019367218018 -0.190569266676902771
-2.68483638763427734 1.5589984655380249 1.65029633045196533 0.455602735280990601 -0.306898832321166992 -0.83560711145401001
-4.02582073211669922 5.49970006942749023 2.10593986511230469 -0.482280075550079346 0.827200472354888916 0.288349360227584839
-4.02568864822387695 5.49970006942749023 2.10571622848510742 -0.131369516253471375 0.921371340751647949 -0.365809708833694458
-5.49970006942749023 2.59115338325500488 3.32857513427734375 -0.978201031684875488 0.0902519673109054565 -0.187021955847740173
-4.05235910415649414 2.00534582138061523 0.000300000014249235392 -0.0622626803815364838 -0.0124001502990722656 -0.99798274040222168
-0.000300000014249235392 1.58522212505340576 4.42474794387817383 0.990574300289154053 -0.0972840115427970886 -0.0964280366897583008
-0.000300000014249235392 0.414691925048828125 3.7190251350402832 0.973123311996459961 -0.184524431824684143 -0.13777393102645874
-3.50858163833618164 5.49970006942749023 4.78604698181152344 -0.0691135600209236145 0.990825951099395752 0.116134092211723328
-3.118988037109375 1.98829686641693115 5.49970006942749023 0.755999267101287842 0.138307318091392517 0.639793992042541504
-3.11921215057373047 1.98824262619018555 5.49970006942749023 0.398371607065200806 0.0325727276504039764 0.916645526885986328
-4.0566554069519043 0.935626864433288574 0.000300000014249235392 -0.065871700644493103 -0.0810023993253707886 -0.994534730911254883
-1.52013921737670898 5.25436115264892578 0.000300000014249235392 0.0259001944214105606 0.128317341208457947 -0.991394877433776855
-5.49970006942749023 4.74502897262573242 4.87286472320556641 -0.973657131195068359 0.223339229822158813 -0.0459478721022605896
-1.74176669120788574 5.49970006942749023 2.81223630905151367 0.0940652266144752502 0.974002838134765625 -0.206082671880722046
-4.03008937835693359 5.49970006942749023 3.68702268600463867 0.0975693166255950928 0.989123702049255371 -0.110065735876560211
-4.03016948699951172 5.49970006942749023 3.68700551986694336 -0.164218217134475708 0.972716569900512695 -0.163874387741088867
-4.30280160903930664 5.49970006942749023 4.43029260635375977 0.1357278972864151 0.951247215270996094 0.276959508657455444
-4.30284547805786133 5.49970006942749023 4.43024110794067383 -0.00292620668187737465 0.993030309677124023 0.117822609841823578
-0.000300000014249235392 5.36252212524414062 2.7074577808380127 0.96818244457244873 0.169902026653289795 -0.183728158473968506
-0.000300000014249235392 1.1472010612487793 3.91721296310424805 0.97984236478805542 -0.0868896916508674622 -0.179886296391487122
-5.49970006942749023 0.223615169525146484 2.45374917984008789 -0.962136507034301758 -0.196541145443916321 -0.188851550221443176
-3.71471619606018066 5.49970006942749023 3.4389183521270752 -0.116753518581390381 0.972724676132202148 -0.200437501072883606
-5.49970006942749023 -0.96829676628112793 2.59758210182189941 -0.965263843536376953 -0.207838788628578186 -0.158330947160720825
-5.49970006942749023 2.78490972518920898 2.78179144859313965 -0.973208785057067871 -0.00802855007350444794 -0.229782938957214355
-3.49667119979858398 5.49970006942749023 3.80874419212341309 0.345022469758987427 0.861794948577880859 -0.371845126152038574
-3.49680233001708984 5.49970006942749023 3.80881738662719727 -0.0355757772922515869 0.982208728790283203 -0.184391573071479797
-1.63900125026702881 5.49970006942749023 1.37357091903686523 0.252817273139953613 0.961610555648803711 -0.106717005372047424
-1.63906741142272949 5.49970006942749023 1.37352216243743896 0.0406085886061191559 0.963823199272155762 -0.263430684804916382
-3.19276714324951172 5.49970006942749023 4.09718942642211914 0.117065243422985077 0.810102880001068115 -0.574481487274169922
-3.1927955150604248 5.49970006942749023 4.09736156463623047 0.049452953040599823 0.989830493927001953 -0.133379042148590088
-0.000300000014249235392 1.49409592151641846 2.54984402656555176 0.960672855377197266 -0.0729081258177757263 -0.26794007420539856
-2.7118229866027832 3.06617498397827148 3.3002924919128418 0.0797434002161026001 0.123527169227600098 -0.989131927490234375
-0.000300000014249235392 4.12072372436523438 5.24771928787231445 0.976717710494995117 0.213572457432746887 -0.0202288702130317688
-3.88220739364624023 2.84970521926879883 3.3002924919128418 -0.196394398808479309 -0.561060190200805664 -0.804139673709869385
-3.88216280937194824 2.84985589981079102 3.3002924919128418 -0.0931561961770057678 -0.19017423689365387 -0.977320611476898193
-5.49970006942749023 4.07124185562133789 5.10000133514404297 -0.986953020095825195 0.155157729983329773 -0.0430088117718696594
-2.53205060958862305 5.49970006942749023 1.62200307846069336 0.0119362110272049904 0.956952691078186035 -0.28999820351600647
-0.561404228210449219 0.655837059020996094 0.000300000014249235392 0.997492790222167969 0.0676454976201057434 -0.0207896716892719269
-0.575660228729248047 0.654956817626953125 0.000300000014249235392 0.393659085035324097 0.279366940259933472 -0.875777721405029297
-4.30308151245117188 -0.981853008270263672 0.000300000014249235392 0.365442007780075073 0.537840843200683594 -0.759723186492919922
-4.3031916618347168 -0.982048273086547852 0.000300000014249235392 0.112053222954273224 0.0570648051798343658 -0.99206233024597168
-4.30345678329467773 -0.982528448104858398 0.000300000014249235392 -0.0508535429835319519 -0.347751647233963013 -0.936206459999084473
