ply
format ascii 1.0
element vertex 378
property float x
property float y
property float z
property float nx
property float ny
property float nz
end_header
-2.5907902717590332 4.81857872009277344 5.49699974060058594 -0.0731598213315010071 0.367552995681762695 0.927120506763458252
-3.84601545333862305 1.34304654598236084 0.00300000002607703209 -0.471675455570220947 -0.838206768035888672 -0.273736625909805298
-3.35983943939208984 0.765032291412353516 0.00300000002607703209 0.528533101081848145 -0.00176210841163992882 -0.848910927772521973
-2.45230793952941895 1.92520248889923096 2.55916261672973633 0.815565705299377441 -0.392895638942718506 -0.424836158752441406
-5.49700021743774414 1.28078937530517578 4.79650306701660156 -0.943453848361968994 -0.183549255132675171 -0.27605167031288147
-0.210085153579711914 0.468804836273193359 0.00300000002607703209 0.456531107425689697 -0.201437890529632568 -0.866603732109069824
-1.88950872421264648 1.56887531280517578 3.0463261604309082 0.0817125588655471802 0.0424165092408657074 -0.995752930641174316
-1.71482753753662109 0.266381502151489258 5.49700021743774414 0.384397625923156738 -0.805027365684509277 0.451851099729537964
-2.10413551330566406 2.28461813926696777 2.52116870880126953 0.389221847057342529 -0.845794200897216797 -0.364881455898284912
-3.03870034217834473 1.74263477325439453 0.00300000002607703209 0.439707964658737183 -0.0587371215224266052 -0.896218061447143555
-1.66557478904724121 1.89355337619781494 2.9898221492767334 -0.179493933916091919 -0.267483353614807129 -0.946696639060974121
-1.51028597354888916 2.1096804141998291 2.77201461791992188 -0.393928110599517822 -0.588210105895996094 -0.706278681755065918
-4.83841228485107422 5.49700021743774414 5.044921875 -0.094248063862323761 0.973590672016143799 -0.207938820123672485
-4.45499420166015625 3.11009621620178223 5.49700021743774414 -0.621971845626831055 0.333857446908950806 0.708301305770874023
-5.49700021743774414 3.27891445159912109 5.12179470062255859 -0.966924130916595459 0.00292098359204828739 -0.255047440528869629
-2.02568745613098145 1.9644092321395874 2.95802021026611328 0.279617160558700562 -0.398871243000030518 -0.873336136341094971
-2.43816161155700684 1.63176274299621582 2.71170210838317871 0.809493899345397949 0.0218827910721302032 -0.586720526218414307
-2.6520073413848877 0.830778002738952637 0.00300000002607703209 -0.543016135692596436 -0.779771089553833008 -0.311593413352966309
-3.54613184928894043 2.68461084365844727 0.47803032398223877 -0.995424747467041016 0.0475096218287944794 -0.082899630069732666
-5.49700021743774414 2.97112417221069336 0.0481805801391601562 -0.504278063774108887 -0.863536477088928223 0.0028998285997658968
-2.02485442161560059 3.77844882011413574 5.49700021743774414 0.612838089466094971 0.231274604797363281 0.75560683012008667
-3.54353713989257812 2.91764020919799805 3.30299258232116699 -0.146947413682937622 -0.369034856557846069 -0.917725324630737305
-1.39410161972045898 4.16104269027709961 5.49700021743774414 0.717801570892333984 0.363166332244873047 0.594029545783996582
-1.98677229881286621 2.00740337371826172 1.65299630165100098 0.39422374963760376 -0.752873063087463379 -0.527038693428039551
-1.51609253883361816 1.94381213188171387 2.90261650085449219 -0.340598940849304199 -0.369840502738952637 -0.864413261413574219
-5.49700021743774414 1.16227495670318604 0.466031789779663086 -0.968280196189880371 -0.10837244987487793 0.225142017006874084
-3.50459957122802734 1.38507378101348877 0.00300000002607703209 0.800955474376678467 -0.0164182800799608231 -0.598498761653900146
-0.00300000002607703209 3.34408855438232422 3.80962729454040527 0.35278630256652832 0.234803766012191772 0.905764341354370117
-2.92035555839538574 3.65900802612304688 3.30299234390258789 0.143604636192321777 -0.550040066242218018 -0.82269895076751709
-3.13217520713806152 5.49700021743774414 5.49190235137939453 -0.309217572212219238 0.942697227001190186 -0.125325337052345276
-2.35946249961853027 1.98460006713867188 2.69155526161193848 0.684706389904022217 -0.451586246490478516 -0.57205510139465332
-4.60355472564697266 0.153865993022918701 0.981100201606750488 -0.71662139892578125 0.695303142070770264 0.054839596152305603
-3.04514741897583008 0.287342548370361328 0.00300000002607703209 0.368240624666213989 0.278729140758514404 -0.886966049671173096
-5.09149265289306641 5.49700021743774414 4.70587491989135742 -0.647176027297973633 0.553072214126586914 0.524665951728820801
-3.84021902084350586 5.49700021743774414 3.55008649826049805 -0.140351414680480957 0.966613888740539551 -0.214380711317062378
-5.49700021743774414 1.29120802879333496 3.06753396987915039 -0.776521146297454834 -0.275628834962844849 0.566607236862182617
-4.50921344757080078 5.49700021743774414 3.89318728446960449 -0.762621223926544189 0.539150655269622803 0.357386946678161621
-0.00300023844465613365 2.48223686218261719 4.81764841079711914 0.895957469940185547 -0.328634947538375854 0.298762500286102295
-1.1516948938369751 2.57421970367431641 0.00300000002607703209 0.397206008434295654 0.103820674121379852 -0.911838054656982422
-1.92098402976989746 1.4193805456161499 3.00374937057495117 0.146508932113647461 0.226818501949310303 -0.962854385375976562
-0.00300023844465613365 5.44875097274780273 0.655541896820068359 0.594002723693847656 0.789691507816314697 -0.153453782200813293
-0.00299976160749793053 1.39909040927886963 4.44886875152587891 0.71172797679901123 -0.131402164697647095 0.690056085586547852
-0.00299976160749793053 2.02564644813537598 3.39462423324584961 0.683979988098144531 -0.518577039241790771 0.513078272342681885
-2.75894308090209961 5.40190553665161133 5.49700021743774414 0.435864031314849854 0.653345286846160889 0.619000673294067383
-1.87119340896606445 1.72794497013092041 3.05120348930358887 0.0747501328587532043 -0.0739883705973625183 -0.994453668594360352
-5.16514301300048828 5.44088459014892578 5.49700021743774414 -0.195155218243598938 -0.147678181529045105 0.969590425491333008
-0.00300023844465613365 4.90045833587646484 0.386191606521606445 0.980292141437530518 0.143551304936408997 0.135721594095230103
-4.15091562271118164 2.11924457550048828 0.00300000002607703209 0.626267850399017334 -0.0606051608920097351 -0.777248740196228027
-5.49700021743774414 1.15420937538146973 3.91663217544555664 -0.178657561540603638 -0.727208077907562256 -0.662759244441986084
-4.01275920867919922 3.15650296211242676 3.30299234390258789 -0.191382125020027161 -0.0377587080001831055 -0.980788767337799072
-5.49700021743774414 3.25195789337158203 3.45419549942016602 -0.972752153873443604 0.207059770822525024 0.104305006563663483
-0.172662258148193359 5.49699974060058594 3.24273800849914551 0.397722512483596802 0.817783117294311523 -0.415989845991134644
-2.13165521621704102 2.2584998607635498 2.15027713775634766 0.1813821941614151 -0.190908670425415039 0.964704334735870361
-2.21833038330078125 2.34984302520751953 1.65299630165100098 0.715641379356384277 -0.58891451358795166 -0.375549048185348511
-2.82292675971984863 3.12947368621826172 3.30299258232116699 0.831845343112945557 -0.429287970066070557 -0.351774275302886963
-1.8786928653717041 1.21150565147399902 2.88170433044433594 0.0870110094547271729 0.518804550170898438 -0.850453376770019531
-2.16100072860717773 1.95859754085540771 2.9011375904083252 0.426168859004974365 -0.338018327951431274 -0.839120805263519287
-0.00299976160749793053 0.128508567810058594 4.35084247589111328 0.545198738574981689 -0.815710306167602539 -0.193326324224472046
-2.30673408508300781 3.88220930099487305 5.49700021743774414 0.52122807502746582 0.266475379467010498 0.810747921466827393
-0.00300000002607703209 -0.216373443603515625 5.05780458450317383 0.838229060173034668 -0.150926947593688965 -0.524016380310058594
-0.301465511322021484 5.49700021743774414 4.18401575088500977 0.497277766466140747 0.360033273696899414 -0.789361059665679932
-0.00300000002607703209 3.9413752555847168 5.38370084762573242 0.914312124252319336 -0.403714507818222046 -0.0323724411427974701
-2.24189233779907227 1.93755114078521729 2.85639619827270508 0.483910053968429565 -0.387541770935058594 -0.784628868103027344
-0.676787853240966797 4.67808198928833008 0.00300023844465613365 0.438716769218444824 -0.207644075155258179 -0.874306321144104004
-3.56468582153320312 3.77704405784606934 3.30299234390258789 0.329657703638076782 -0.0741438865661621094 -0.941184878349304199
-1.4925534725189209 2.44741344451904297 0.4419422447681427 0.606291592121124268 -0.716045975685119629 -0.345960527658462524
-4.88138818740844727 0.462349891662597656 0.00300000002607703209 0.69361114501953125 -0.243159368634223938 -0.678068697452545166
-1.800689697265625 1.45578992366790771 3.01980090141296387 0.0209146030247211456 0.196579158306121826 -0.980264902114868164
-5.49700021743774414 1.09256947040557861 4.66148567199707031 -0.242909952998161316 0.321138978004455566 0.915349423885345459
-0.745579719543457031 5.49700021743774414 0.744476556777954102 0.0935204699635505676 0.992374658584594727 0.0802899450063705444
-1.69322609901428223 1.62548220157623291 3.0364692211151123 -0.105139181017875671 -0.0226709675043821335 -0.994199097156524658
-3.8987431526184082 3.72436714172363281 4.43666839599609375 -0.787038624286651611 -0.101914450526237488 -0.608427166938781738
-0.00300000002607703209 5.19400262832641602 5.42515707015991211 0.974809169769287109 -0.202852591872215271 -0.092724822461605072
-1.92959856986999512 2.35083317756652832 2.35311007499694824 0.133615091443061829 -0.980449795722961426 -0.14444790780544281
-1.86741900444030762 1.49981486797332764 3.03374004364013672 0.0545194968581199646 0.166444659233093262 -0.984542429447174072
-1.61926078796386719 4.05166864395141602 0.00300000002607703209 0.297590821981430054 -0.319647073745727539 -0.899591803550720215
-0.682168483734130859 5.49700021743774414 5.46817111968994141 0.618867576122283936 0.778452396392822266 -0.104951523244380951
-3.61453604698181152 3.88555431365966797 3.30299234390258789 -0.0530728697776794434 0.823705852031707764 -0.564528048038482666
-3.13091921806335449 5.49700021743774414 5.3568730354309082 0.43575441837310791 0.568412899971008301 -0.697871685028076172
-0.00300000002607703209 2.31516456604003906 2.23066043853759766 0.952419579029083252 -0.195217475295066833 0.234066352248191833
-2.46396136283874512 2.52817654609680176 1.17320442199707031 0.604556500911712646 -0.57551264762878418 -0.550723791122436523
-1.67275130748748779 1.97134017944335938 2.95767498016357422 -0.174966558814048767 -0.417148381471633911 -0.891837418079376221
-0.00300000002607703209 3.88364863395690918 0.587769269943237305 0.116516739130020142 -0.756782650947570801 -0.643198132514953613
-3.07314205169677734 5.49700021743774414 4.27387046813964844 0.649842143058776855 0.586145102977752686 -0.483879268169403076
-4.80597829818725586 3.62613296508789062 5.49700021743774414 -0.336897045373916626 0.329191118478775024 0.882118821144104004
-4.33893728256225586 -0.392436325550079346 0.861975908279418945 -0.00673901382833719254 -0.999021530151367188 -0.0437089279294013977
-3.41174030303955078 3.56572246551513672 4.23428726196289062 -0.580557763576507568 -0.0835096016526222229 -0.809925198554992676
-2.43961787223815918 1.50779044628143311 2.04367733001708984 0.736638724803924561 0.008562430739402771 0.676232337951660156
-1.84510707855224609 1.45240688323974609 3.02014374732971191 0.00694748386740684509 0.207366406917572021 -0.97823864221572876
-4.04896402359008789 3.3301699161529541 3.30299234390258789 -0.332590401172637939 0.599677443504333496 -0.72785341739654541
-2.0488593578338623 5.49700021743774414 3.67604351043701172 0.666885137557983398 0.243420779705047607 -0.70428013801574707
-0.00299952318891882896 4.30598783493041992 3.68942594528198242 0.828816890716552734 0.404079049825668335 -0.387017667293548584
-5.49700021743774414 -0.561086177825927734 3.84321784973144531 -0.476640135049819946 -0.742174267768859863 -0.471159785985946655
-1.90904879570007324 1.48558664321899414 3.02696371078491211 0.113028824329376221 0.173598036170005798 -0.978308796882629395
-4.53417015075683594 2.21074795722961426 0.00300000002607703209 -0.712573111057281494 -0.343076258897781372 -0.611995339393615723
-1.59993207454681396 1.71815025806427002 3.00687599182128906 -0.240109249949455261 -0.0558795630931854248 -0.969136238098144531
-1.99664008617401123 1.76887333393096924 3.02878832817077637 0.238946929574012756 -0.179882347583770752 -0.954225718975067139
-1.35153722763061523 0.454941987991333008 0.00300000002607703209 0.059217553585767746 -0.475980430841445923 -0.877459943294525146
-0.00299976160749793053 1.08849453926086426 4.58649063110351562 0.816134154796600342 -0.533215522766113281 0.22272413969039917
-1.79194974899291992 2.26607489585876465 2.69768691062927246 0.00088170170783996582 -0.801333904266357422 -0.598216712474822998
-2.84982419013977051 5.49700021743774414 4.93434286117553711 0.380946248769760132 0.734179854393005371 -0.562014162540435791
-3.16932868957519531 5.49700021743774414 1.72159409523010254 -0.163555756211280823 0.90131080150604248 -0.401108920574188232
-0.00300023844465613365 4.03876209259033203 2.30701875686645508 0.917695283889770508 0.0736319422721862793 -0.390401691198348999
-5.49700021743774414 0.955028295516967773 4.18879461288452148 -0.294661462306976318 0.0308109652251005173 -0.95510488748550415
-0.00300000002607703209 4.99416160583496094 4.84630012512207031 0.496515482664108276 0.715599536895751953 -0.491314232349395752
-3.58050203323364258 5.49700021743774414 5.35783672332763672 -0.513693392276763916 0.823961198329925537 -0.239180073142051697
-4.18247032165527344 0.0164101570844650269 0.748325169086456299 0.309975743293762207 -0.258399039506912231 -0.914956331253051758
-0.00300000002607703209 -0.0184252262115478516 1.28568601608276367 0.341104388236999512 -0.57742464542388916 -0.74177396297454834
-0.00300000002607703209 5.19720697402954102 5.16079282760620117 0.410580188035964966 0.736863076686859131 0.537082076072692871
-5.49700021743774414 5.41620254516601562 2.91078758239746094 -0.961863994598388672 -0.018807876855134964 0.272880792617797852
-5.49700021743774414 3.87151432037353516 3.46462488174438477 -0.913084983825683594 0.406719386577606201 -0.0292412042617797852
-4.58035039901733398 0.047458060085773468 0.74832528829574585 0.303380697965621948 0.886711716651916504 -0.348858773708343506
-3.68321561813354492 -0.230475515127182007 0.748325169086456299 -0.27024531364440918 -0.513267338275909424 -0.81456989049911499
-3.5080716609954834 5.49700021743774414 0.178221702575683594 0.0515866726636886597 0.924596071243286133 0.377440005540847778
-2.94986605644226074 5.49288558959960938 0.00300000002607703209 -0.857850313186645508 -0.267111241817474365 -0.439026623964309692
-4.43467903137207031 5.49700021743774414 5.47851133346557617 0.920970499515533447 0.33914637565612793 -0.191815182566642761
-3.39529752731323242 1.55824184417724609 5.49700021743774414 0.0622550845146179199 -0.851642847061157227 0.520412206649780273
-0.00299976160749793053 4.49247503280639648 5.11654376983642578 0.895369231700897217 -0.311493337154388428 0.318254321813583374
-3.34326052665710449 3.98656225204467773 3.30299210548400879 -0.17630217969417572 -0.508472681045532227 -0.842836320400238037
-1.42166376113891602 2.15080380439758301 2.61161708831787109 -0.359974920749664307 -0.801659762859344482 -0.477241814136505127
-3.38699102401733398 5.49700021743774414 3.91887998580932617 -0.4515036940574646 0.47783660888671875 -0.753536045551300049
-0.00300000002607703209 3.55978012084960938 0.469008922576904297 0.962935447692871094 -0.0160018354654312134 0.269256830215454102
-5.49700021743774414 3.09166121482849121 5.36393117904663086 -0.442981749773025513 -0.712804198265075684 0.54376220703125
-0.91160285472869873 5.49700021743774414 0.718302726745605469 0.170114472508430481 0.50609201192855835 -0.845536470413208008
-1.81381809711456299 1.73056435585021973 3.05083370208740234 -0.00849885866045951843 -0.100123599171638489 -0.99493873119354248
-1.95973217487335205 1.96773386001586914 2.9727935791015625 0.158616691827774048 -0.43379664421081543 -0.886939287185668945
-2.04377031326293945 2.78183388710021973 0.00300000002607703209 -0.24339643120765686 0.686483621597290039 -0.685199499130249023
-2.3300774097442627 2.40142679214477539 5.49700021743774414 -0.144903272390365601 0.22469252347946167 0.96359562873840332
-2.1416168212890625 2.64110493659973145 1.53380107879638672 -0.638450980186462402 -0.580446183681488037 0.505433082580566406
-4.18577146530151367 0.763415873050689697 0.564911723136901855 0.0912985280156135559 -0.610777080059051514 -0.786521434783935547
-3.43990635871887207 2.71756362915039062 2.93256449699401855 -0.402181714773178101 -0.0490199960768222809 -0.914246618747711182
-5.09830284118652344 -0.474988937377929688 5.49700021743774414 -0.399295508861541748 -0.252863168716430664 0.881262362003326416
-2.69704723358154297 0.479294061660766602 5.49700021743774414 0.281030565500259399 -0.907660841941833496 0.311726868152618408
-0.581716299057006836 5.49700021743774414 5.12245368957519531 0.23191426694393158 0.594079077243804932 -0.770250499248504639
-3.12894129753112793 5.32284402847290039 5.49700021743774414 0.248224154114723206 -0.190510734915733337 0.949784398078918457
-1.90860295295715332 5.49700021743774414 0.825021028518676758 0.215309754014015198 0.975698173046112061 -0.0406788848340511322
-3.67471194267272949 3.47875070571899414 4.43871307373046875 0.149327114224433899 0.645439386367797852 -0.749072372913360596
-2.25217747688293457 1.81049823760986328 2.90012145042419434 0.570194780826568604 -0.193499356508255005 -0.798395872116088867
-0.00300023844465613365 3.65559482574462891 4.31466770172119141 0.969030976295471191 0.0896607339382171631 0.230086743831634521
-2.34349536895751953 1.27224016189575195 2.63097071647644043 0.729850053787231445 0.444789975881576538 -0.5191153883934021
-0.0436413288116455078 1.02873051166534424 0.00300000002607703209 -0.0093911290168762207 -0.305866092443466187 -0.952028274536132812
-3.62418103218078613 3.80894184112548828 3.45532560348510742 -0.623427450656890869 0.539882361888885498 0.565566301345825195
-2.04296612739562988 2.21105551719665527 2.73477411270141602 0.26709747314453125 -0.730333685874938965 -0.62870633602142334
-1.74978125095367432 2.05412077903747559 2.92534852027893066 -0.0562365502119064331 -0.543339908123016357 -0.837627172470092773
-1.95546066761016846 1.29557764530181885 2.93533658981323242 0.223915696144104004 0.418389260768890381 -0.880234122276306152
-3.56263422966003418 3.77624654769897461 4.30313253402709961 0.507394373416900635 -0.667641520500183105 -0.544798851013183594
-2.2708587646484375 1.48393511772155762 2.87403607368469238 0.57945936918258667 0.176471307873725891 -0.795666217803955078
-1.88486301898956299 2.29993534088134766 2.63012170791625977 0.0870041102170944214 -0.839045464992523193 -0.537059664726257324
-1.66833138465881348 1.49920248985290527 3.0099942684173584 -0.180995196104049683 0.16733667254447937 -0.969143569469451904
-2.36719274520874023 1.28028273582458496 2.12080478668212891 0.579024255275726318 0.537499904632568359 0.613045632839202881
-4.02250909805297852 -0.497354805469512939 0.855504989624023438 -0.919913709163665771 -0.177862554788589478 0.349461913108825684
-2.05573821067810059 1.46550989151000977 2.98916482925415039 0.274700969457626343 0.182714119553565979 -0.944010019302368164
-5.49700021743774414 3.83257222175598145 3.74805021286010742 -0.808677554130554199 -0.240959271788597107 0.536637008190155029
-0.00300000002607703209 2.57228922843933105 1.41711318492889404 0.946590244770050049 0.261569231748580933 0.188542947173118591
-2.15643715858459473 1.7046438455581665 2.97730064392089844 0.453072309494018555 -0.0584852658212184906 -0.889553248882293701
-0.00300000002607703209 0.205167531967163086 4.58604097366333008 0.714208781719207764 -0.665716946125030518 0.216163039207458496
-2.17877411842346191 1.59967434406280518 2.96308040618896484 0.427727699279785156 0.0631210654973983765 -0.901701033115386963
-4.79974937438964844 5.49700021743774414 4.21684646606445312 0.192266270518302917 0.88296818733215332 -0.428253203630447388
-0.399283647537231445 0.545943021774291992 0.00300000002607703209 -0.0925572365522384644 -0.0633254796266555786 -0.993691563606262207
-1.45392739772796631 1.79881525039672852 2.91677308082580566 0.107699215412139893 -0.362253963947296143 -0.925836324691772461
-0.314394474029541016 4.13322734832763672 5.49700021743774414 0.285257577896118164 -0.238469883799552917 0.928310394287109375
-0.00300000002607703209 2.64850330352783203 5.33871889114379883 0.959806501865386963 0.160119667649269104 -0.230506360530853271
-0.00300000002607703209 4.20008182525634766 4.51429128646850586 0.939832091331481934 -0.0382575206458568573 -0.339487940073013306
-5.04278850555419922 5.49700021743774414 5.28138589859008789 0.183464512228965759 0.973653435707092285 -0.135424405336380005
-0.00300000002607703209 5.30958223342895508 5.46543121337890625 0.315947026014328003 0.234824329614639282 0.919257879257202148
-0.00300000002607703209 4.88636255264282227 1.12886917591094971 0.764891862869262695 -0.150983527302742004 0.626214325428009033
-3.53620243072509766 4.42153787612915039 0.708384811878204346 0.327727228403091431 -0.416481584310531616 0.848020017147064209
-1.67274892330169678 1.56905484199523926 3.02548074722290039 -0.144495740532875061 0.0731947943568229675 -0.986794590950012207
-0.0341289043426513672 5.49700021743774414 0.819672107696533203 0.43428725004196167 0.68980783224105835 0.579275131225585938
-2.28444123268127441 5.49700021743774414 1.70100235939025879 0.225334927439689636 0.377103209495544434 -0.89834141731262207
-0.00300047686323523521 3.87463140487670898 4.03088188171386719 0.931861758232116699 0.0215446054935455322 -0.362173229455947876
-1.71833717823028564 3.11062717437744141 5.49700021743774414 0.0588577911257743835 0.436678260564804077 0.897690653800964355
-0.00300047686323523521 5.25596189498901367 4.46015596389770508 0.710234344005584717 0.678854644298553467 -0.18634246289730072
-0.00300000002607703209 1.78255534172058105 2.23090314865112305 0.505758166313171387 -0.763643741607666016 -0.401318967342376709
-0.00300000002607703209 4.11841869354248047 2.54685044288635254 0.617848813533782959 -0.400250703096389771 -0.676802933216094971
-3.54260373115539551 3.55490469932556152 3.30299234390258789 0.132240235805511475 -0.151588842272758484 -0.979557633399963379
-4.13458919525146484 0.682923614978790283 0.772407472133636475 0.672960758209228516 0.717791616916656494 -0.178602904081344604
-3.12252545356750488 3.03881025314331055 5.49700021743774414 0.160897165536880493 -0.942832827568054199 0.291853278875350952
-1.55393922328948975 1.50915682315826416 2.96997332572937012 -0.349547922611236572 0.138322532176971436 -0.926651537418365479
-2.4892578125 5.49700021743774414 4.48900604248046875 0.388151675462722778 0.858410179615020752 -0.335365861654281616
-0.00300023844465613365 0.908836126327514648 3.99520254135131836 0.627709269523620605 -0.721058070659637451 0.293353736400604248
-0.00300023844465613365 2.61071395874023438 4.15686750411987305 0.943876266479492188 -0.330110788345336914 0.0111437141895294189
-2.76568508148193359 3.35725975036621094 0.0653721094131469727 -0.499617218971252441 -0.865745007991790771 0.0294649992138147354
-0.00300000002607703209 4.53063488006591797 3.44311785697937012 0.313815206289291382 0.737198472023010254 0.598379850387573242
-3.41267299652099609 0.860065460205078125 5.49700021743774414 -0.438718795776367188 -0.248553097248077393 0.863566756248474121
-0.00300000002607703209 3.3600468635559082 3.05563664436340332 0.638544797897338867 -0.764037907123565674 -0.0922314748167991638
-1.89288616180419922 1.63963425159454346 3.05251622200012207 0.134616613388061523 0.0476326122879981995 -0.98975217342376709
-4.19987678527832031 5.49700021743774414 5.47869110107421875 0.0764804109930992126 0.996726334095001221 -0.0262186713516712189
-3.67226099967956543 3.10120439529418945 3.30299258232116699 0.0224381685256958008 -0.355343520641326904 -0.93446660041809082
-1.02073550224304199 2.6736140251159668 0.00300000002607703209 0.514934539794921875 0.628837049007415771 -0.582585930824279785
-0.00299976160749793053 3.88617253303527832 3.99042510986328125 0.839130699634552002 0.27105829119682312 -0.471579372882843018
-4.24371337890625 -0.850125551223754883 0.00300000002607703209 0.614920496940612793 -0.0735187381505966187 -0.78515470027923584
-4.2895970344543457 4.11632728576660156 3.30299210548400879 -0.293168216943740845 0.278255105018615723 -0.9146728515625
-2.35825943946838379 2.18727469444274902 1.65299630165100098 0.706308186054229736 -0.644709348678588867 -0.292367309331893921
-3.76399707794189453 3.61562156677246094 3.30299234390258789 -0.815571308135986328 0.24965454638004303 -0.522030770778656006
-2.29523777961730957 1.72914564609527588 2.88098502159118652 0.552140355110168457 -0.0768521428108215332 -0.830201625823974609
-2.77682113647460938 -0.348656654357910156 0.00300000002607703209 0.188129052519798279 -0.20843505859375 -0.959771990776062012
-2.04564738273620605 1.32240712642669678 2.92701864242553711 0.315417945384979248 0.390307843685150146 -0.864969015121459961
-5.49700021743774414 2.61032986640930176 5.38204002380371094 -0.996064901351928711 0.0392421744763851166 -0.0794655457139015198
-2.02480125427246094 2.30547690391540527 2.545654296875 0.246411621570587158 -0.907538294792175293 -0.340081870555877686
-1.967948317527771 1.49608302116394043 3.02117156982421875 0.21185600757598877 0.190810725092887878 -0.958492696285247803
-1.75143027305603027 5.49700021743774414 2.89191007614135742 0.665399789810180664 0.708365857601165771 -0.235502123832702637
-4.09254693984985352 0.685426115989685059 0.74832528829574585 0.733793497085571289 -0.387831419706344604 -0.557793796062469482
-2.84023547172546387 5.25023651123046875 0.00300000002607703209 0.220140412449836731 0.781933307647705078 -0.583196878433227539
-2.91750931739807129 3.07982969284057617 5.49700021743774414 0.0724980086088180542 -0.035930141806602478 0.996721148490905762
-2.47745323181152344 1.46349930763244629 1.65299618244171143 -0.150628089904785156 -0.488664954900741577 -0.85937047004699707
-2.9075314998626709 4.77297878265380859 5.49700021743774414 0.127288416028022766 0.0986127480864524841 0.986951470375061035
-3.03393888473510742 2.07362484931945801 0.00300000002607703209 0.585092306137084961 -0.421447902917861938 -0.692855417728424072
-0.00300000002607703209 5.48215723037719727 1.79300832748413086 0.792610228061676025 -0.00371231534518301487 -0.609717309474945068
-5.49700021743774414 1.18964266777038574 0.429263830184936523 -0.620949923992156982 0.728994369506835938 -0.288077205419540405
-5.41270351409912109 0.785826325416564941 0.00300000002607703209 -0.242371857166290283 -0.311512947082519531 -0.918812036514282227
-0.977744340896606445 5.49700021743774414 0.815610289573669434 0.710343897342681885 0.337061256170272827 -0.6179007887840271
-0.473726987838745117 0.884519577026367188 0.00300023844465613365 -0.160306811332702637 -0.408996790647506714 -0.898344874382019043
-3.57953143119812012 4.49864387512207031 5.49700021743774414 -0.472952365875244141 -0.703384935855865479 0.530627608299255371
-2.62945389747619629 3.89171314239501953 0.00300000002607703209 0.596643149852752686 0.487730979919433594 -0.637287616729736328
-3.60054254531860352 5.49700021743774414 4.52644681930541992 -0.00219732522964477539 0.89020925760269165 0.455546349287033081
-1.63588416576385498 5.38839054107666016 0.00300000002607703209 0.278617680072784424 -0.564722120761871338 -0.776827573776245117
-5.49699974060058594 1.26457715034484863 2.57977461814880371 -0.736090242862701416 -0.422830790281295776 0.52856910228729248
-2.71972942352294922 0.238048076629638672 5.49700021743774414 -0.255542755126953125 -0.450096368789672852 0.855635166168212891
-2.11198854446411133 3.0790555477142334 0.00300000002607703209 -0.312468349933624268 0.911643385887145996 -0.266964197158813477
-5.21789169311523438 -0.169568300247192383 5.49700021743774414 -0.166298910975456238 -0.506204664707183838 0.846227824687957764
-5.49700021743774414 0.287041187286376953 3.01464200019836426 -0.628439843654632568 0.193803310394287109 0.753328382968902588
-3.80636143684387207 3.31025815010070801 3.30299234390258789 -0.758406758308410645 -0.0390000045299530029 -0.650613665580749512
-5.49700021743774414 -0.624671459197998047 0.0544583797454833984 -0.250564336776733398 -0.437743693590164185 0.863480150699615479
-0.144245624542236328 2.52961277961730957 0.00299952318891882896 0.4288463294506073 -0.460254430770874023 -0.777339577674865723
-3.24806118011474609 2.31216764450073242 5.49699974060058594 0.205403745174407959 0.4851798415184021 0.849946916103363037
-0.00300000002607703209 0.620017766952514648 5.32518720626831055 0.817643404006958008 0.536152660846710205 -0.209760859608650208
-1.8454667329788208 2.1629793643951416 1.87580692768096924 -0.356208086013793945 -0.641179144382476807 0.679709553718566895
-5.49700021743774414 3.79876899719238281 3.71397948265075684 -0.797305583953857422 -0.203609809279441833 -0.56819617748260498
-4.45322608947753906 5.49700021743774414 2.11486363410949707 -0.209924608469009399 0.656411409378051758 -0.724607169628143311
-3.69727993011474609 3.14761710166931152 3.30299258232116699 -0.370342671871185303 -0.676794588565826416 -0.636235415935516357
-5.49700021743774414 0.600793838500976562 5.20733737945556641 -0.442795872688293457 -0.896606922149658203 0.00528097711503505707
-2.09326457977294922 2.23520207405090332 2.66088008880615234 0.328486829996109009 -0.763652324676513672 -0.555816054344177246
-2.4088127613067627 5.49700021743774414 5.36994791030883789 -0.931384444236755371 0.351916521787643433 -0.0931547582149505615
-2.80028510093688965 3.46879792213439941 3.0383601188659668 -0.292336970567703247 -0.489888757467269897 0.821308791637420654
-5.49700021743774414 4.29897785186767578 4.50037193298339844 -0.899488568305969238 -0.305991590023040771 -0.311912626028060913
-1.7698131799697876 1.36223959922790527 2.97896718978881836 -0.0623887963593006134 0.330475449562072754 -0.941750288009643555
-2.03822612762451172 1.7156827449798584 3.02415084838867188 0.242338478565216064 -0.128827795386314392 -0.961600542068481445
-1.26762712001800537 5.49700021743774414 5.30829429626464844 -0.383422642946243286 0.907362818717956543 -0.172278091311454773
-3.58532190322875977 5.49700021743774414 1.75941205024719238 -0.117906734347343445 0.628023445606231689 0.769210398197174072
-5.02711725234985352 5.49700021743774414 5.0411224365234375 -0.620769858360290527 0.70640873908996582 -0.340046316385269165
-2.0016169548034668 2.16832780838012695 2.80782485008239746 0.422318547964096069 -0.634322524070739746 -0.647519886493682861
-0.00300000002607703209 2.33592581748962402 3.61646413803100586 0.566409647464752197 -0.000190688049769960344 -0.824123859405517578
-0.00300000002607703209 5.48803186416625977 4.18929100036621094 0.110523365437984467 -0.0733180046081542969 0.991165518760681152
-0.00300000002607703209 4.71468591690063477 2.98810505867004395 0.935783863067626953 -0.342060595750808716 0.0854582861065864563
-1.80917799472808838 0.95531463623046875 5.49700021743774414 0.0412663519382476807 -0.263306885957717896 0.963829278945922852
-1.94221997261047363 5.49700021743774414 0.225770950317382812 -0.173120677471160889 0.947927534580230713 -0.267325073480606079
-2.4509422779083252 2.76255393028259277 0.00299976160749793053 -0.209811612963676453 0.859659373760223389 -0.465794831514358521
-1.71191537380218506 1.2068793773651123 2.86156368255615234 -0.136062666773796082 0.54982304573059082 -0.824124693870544434
-2.41143178939819336 1.39687705039978027 2.64919686317443848 0.814691722393035889 0.26479378342628479 -0.515908598899841309
-2.85445404052734375 5.05531167984008789 0.00300000002607703209 0.458305686712265015 -0.289675086736679077 -0.840264379978179932
-5.49700021743774414 5.06696891784667969 1.29750049114227295 -0.577754020690917969 -0.223206683993339539 0.785098135471343994
-5.00256919860839844 5.49700021743774414 2.76752471923828125 -0.400223642587661743 0.910587012767791748 -0.103210695087909698
-5.44516277313232422 5.42519283294677734 0.00300000002607703209 -0.0373390242457389832 -0.117900818586349487 -0.992323100566864014
-2.06783437728881836 2.49760270118713379 5.49700021743774414 0.53457188606262207 -0.503247261047363281 0.678951382637023926
-5.49700021743774414 -0.0327496528625488281 1.47814083099365234 -0.927631676197052002 -0.291606634855270386 0.233377531170845032
-2.19147515296936035 1.65061616897583008 1.75728893280029297 0.591621875762939453 -0.320012509822845459 0.739983499050140381
-4.38318157196044922 1.63490557670593262 5.49700021743774414 -0.191701948642730713 -0.585132241249084473 0.787953376770019531
-0.91714942455291748 1.32851171493530273 0.00300000002607703209 -0.365049749612808228 -0.0153733193874359131 -0.930861055850982666
-0.00300000002607703209 3.27347850799560547 5.35743618011474609 0.891826808452606201 0.449550032615661621 -0.0504946783185005188
-5.49700021743774414 3.2427067756652832 4.78803157806396484 -0.772231996059417725 0.10971793532371521 0.625795245170593262
-5.49700021743774414 3.7962183952331543 4.30230712890625 -0.762481331825256348 0.161575689911842346 -0.6265106201171875
-1.95984899997711182 2.20676589012145996 2.77437686920166016 0.149405941367149353 -0.690929055213928223 -0.707315325736999512
-2.42123150825500488 1.82091271877288818 2.70665788650512695 0.633352220058441162 0.437573939561843872 -0.638274192810058594
-5.49700021743774414 -0.96022486686706543 2.62085628509521484 -0.436683744192123413 -0.747979700565338135 -0.499833643436431885
-2.05853819847106934 1.51412749290466309 3.00183343887329102 0.283378362655639648 0.0998470410704612732 -0.953796267509460449
-0.00300023844465613365 4.02852678298950195 2.66507911682128906 0.562811017036437988 0.530962467193603516 -0.633500277996063232
-5.49700021743774414 1.61715137958526611 3.10685968399047852 -0.989786386489868164 -0.0303197205066680908 0.139297544956207275
-0.00300023844465613365 5.39415693283081055 3.60749936103820801 0.882117033004760742 0.468481242656707764 0.0489357113838195801
-2.7393345832824707 2.93488693237304688 1.15725231170654297 0.385450989007949829 0.843797683715820312 0.373407363891601562
-0.293188095092773438 5.49700021743774414 4.81207942962646484 0.201301127672195435 0.97285771369934082 -0.114130467176437378
-2.97720909118652344 4.34805917739868164 0.00300000002607703209 0.127019882202148438 0.656667053699493408 -0.743407309055328369
-1.67380213737487793 5.49700021743774414 1.54265916347503662 0.488419145345687866 0.715733528137207031 0.499171584844589233
-2.52364397048950195 2.32817935943603516 1.16534042358398438 0.587017059326171875 -0.154729783535003662 -0.794650673866271973
-1.7043832540512085 1.74290359020233154 3.0355536937713623 0.220432639122009277 -0.134759679436683655 -0.966048240661621094
-5.49700021743774414 4.83066511154174805 4.06043291091918945 -0.842257976531982422 0.466310828924179077 0.270473212003707886
-0.00300000002607703209 4.4674072265625 0.570865154266357422 0.942907035350799561 -0.000145088371937163174 0.333055973052978516
-1.58979499340057373 1.5534815788269043 2.99526286125183105 -0.280989259481430054 0.088464103639125824 -0.955625057220458984
-0.00300000002607703209 4.49390029907226562 2.83783364295959473 0.507304787635803223 0.0268675442785024643 0.861347794532775879
-2.08703446388244629 2.20736145973205566 2.71342658996582031 0.325887292623519897 -0.736642718315124512 -0.592583298683166504
-0.00300000002607703209 4.82729148864746094 5.35152244567871094 0.332958370447158813 -0.828963816165924072 -0.449397116899490356
-0.00300000002607703209 4.26301717758178711 3.45163941383361816 0.988019764423370361 0.147532254457473755 0.0452895313501358032
-0.722192287445068359 5.49700021743774414 5.36974716186523438 -0.522130131721496582 0.576529979705810547 -0.628484964370727539
-3.61444401741027832 3.46169638633728027 3.30299234390258789 -0.117447227239608765 -0.760295629501342773 -0.638871371746063232
-2.22937655448913574 1.93495774269104004 1.8489224910736084 0.521630823612213135 -0.496491432189941406 0.693828225135803223
-2.05238866806030273 1.96941924095153809 2.94642901420593262 0.308045744895935059 -0.385312676429748535 -0.86985170841217041
-1.8299790620803833 1.47049939632415771 3.02578234672546387 0.0173742864280939102 0.192715182900428772 -0.981100916862487793
-0.0259380340576171875 5.32373142242431641 0.00300000002607703209 0.750625669956207275 -0.0744579657912254333 -0.656518936157226562
-0.00299976160749793053 1.15084981918334961 0.344044208526611328 0.465519249439239502 -0.376678556203842163 -0.800877690315246582
-2.63386058807373047 1.95884203910827637 1.21689498424530029 0.348141700029373169 -0.727171957492828369 0.591623485088348389
-2.53814911842346191 2.27957272529602051 0.118678390979766846 0.606681227684020996 -0.656166553497314453 -0.448757439851760864
-1.87142550945281982 1.20035505294799805 2.87237906455993652 0.107903450727462769 0.574975132942199707 -0.811024308204650879
-2.02136683464050293 2.32791280746459961 2.44045591354370117 0.333717823028564453 -0.903141260147094727 -0.270126372575759888
-2.45339369773864746 1.47443032264709473 2.09238266944885254 0.695373952388763428 0.202978566288948059 0.689387202262878418
-1.60221445560455322 5.49700021743774414 3.51627826690673828 0.544445574283599854 0.812185943126678467 0.20960216224193573
-0.00300000002607703209 1.9518735408782959 5.01209306716918945 0.162522062659263611 -0.322228372097015381 -0.932606816291809082
-2.63251805305480957 3.55436158180236816 0.00300000002607703209 0.564477682113647461 0.743467986583709717 -0.358636617660522461
-0.00299976160749793053 4.23234081268310547 3.60789227485656738 0.908423423767089844 -0.343994945287704468 -0.237559229135513306
-2.38331389427185059 1.55199182033538818 2.77780032157897949 0.70750272274017334 0.081652320921421051 -0.701977729797363281
-2.0298008918762207 1.26368117332458496 2.8926384449005127 0.285325735807418823 0.481316566467285156 -0.82880854606628418
-3.5028083324432373 1.53605711460113525 0.00300000002607703209 0.392816752195358276 -0.589262843132019043 -0.706020116806030273
-2.89438414573669434 2.21612358093261719 0.00300000002607703209 0.724989175796508789 -0.163988187909126282 -0.668953418731689453
-1.69464206695556641 2.85831999778747559 0.00300000002607703209 -0.633354365825653076 0.682300925254821777 -0.365140616893768311
-0.00300000002607703209 4.92977237701416016 5.35442590713500977 0.517868995666503906 -0.822135686874389648 -0.236441507935523987
-0.00300023844465613365 2.76679897308349609 2.63628530502319336 0.708769798278808594 -0.508072018623352051 -0.489395737648010254
-2.1486208438873291 1.80840003490447998 1.75088965892791748 0.592356681823730469 -0.250244557857513428 0.76582711935043335
-1.76260387897491455 1.60690152645111084 3.04727840423583984 -0.0557925812900066376 0.0213170424103736877 -0.998214840888977051
-2.041839599609375 5.49700021743774414 5.05130481719970703 0.246219515800476074 0.247896403074264526 -0.936975657939910889
-1.79507100582122803 2.3292841911315918 2.54376959800720215 -0.0537972114980220795 -0.90962827205657959 -0.41192510724067688
-1.67874324321746826 5.49700021743774414 1.28916275501251221 0.590549886226654053 0.692808866500854492 -0.413843870162963867
-1.66940665245056152 1.37325584888458252 2.96378898620605469 0.027479974552989006 0.233290165662765503 -0.972018778324127197
-5.49700021743774414 0.404025554656982422 0.781683921813964844 -0.987506389617919922 -0.0982799753546714783 -0.123175233602523804
-0.00300000002607703209 5.27354812622070312 1.64254498481750488 0.747019410133361816 0.289702802896499634 -0.598359644412994385
-1.9880528450012207 1.82379496097564697 5.49700021743774414 0.410483688116073608 -0.570603251457214355 0.7112770676612854
-1.83234274387359619 1.17302381992340088 2.84643912315368652 0.0167786292731761932 0.60677647590637207 -0.794695436954498291
-0.00300000002607703209 3.48923587799072266 1.03907012939453125 0.166496872901916504 -0.436664700508117676 -0.884082973003387451
-1.93352806568145752 2.29737758636474609 1.65299582481384277 0.14266476035118103 -0.16596519947052002 -0.975757300853729248
-1.65395700931549072 1.92662560939788818 2.97325706481933594 -0.143431216478347778 -0.351026564836502075 -0.925314962863922119
-2.03437900543212891 2.96088862419128418 0.00300000002607703209 0.672115445137023926 -0.220502808690071106 -0.706851840019226074
-3.49909377098083496 4.31970787048339844 5.49700021743774414 -0.229707241058349609 -0.661049962043762207 0.714316129684448242
-5.49700021743774414 2.35766315460205078 5.28230571746826172 -0.893836796283721924 -0.217369392514228821 -0.392181456089019775
-4.38659000396728516 0.409891128540039062 0.00300000002607703209 0.0359074734151363373 -0.407646030187606812 -0.912433803081512451
-2.52362895011901855 2.32822990417480469 0.830292463302612305 0.665489614009857178 -0.35269966721534729 0.657819569110870361
-5.49700021743774414 4.87787151336669922 0.811844825744628906 -0.986489593982696533 -0.121376387774944305 0.110027365386486053
-5.49700021743774414 4.17470502853393555 3.47078800201416016 -0.729577600955963135 -0.101353466510772705 0.676346123218536377
-2.18143892288208008 4.85523605346679688 0.00300000002607703209 0.102201022207736969 0.149041071534156799 -0.983535289764404297
-0.00300000002607703209 1.88166356086730957 4.70170402526855469 0.901798129081726074 -0.217191144824028015 -0.373614996671676636
-0.00300000002607703209 -0.241908550262451172 5.12435054779052734 0.833869636058807373 -0.29990851879119873 -0.463374912738800049
-1.60383212566375732 1.96896064281463623 1.78201961517333984 -0.305964857339859009 -0.751671731472015381 0.584273159503936768
-0.00300000002607703209 -0.699567079544067383 5.25938749313354492 0.749260365962982178 -0.65998375415802002 -0.0550485067069530487
-1.87104344367980957 1.58180093765258789 3.04911327362060547 0.0754941776394844055 0.013353496789932251 -0.997056841850280762
-2.11173629760742188 1.45015835762023926 2.96177816390991211 0.394592463970184326 0.22442162036895752 -0.891028523445129395
-0.00300000002607703209 1.89524722099304199 2.14231538772583008 0.781951665878295898 -0.598582684993743896 -0.173926383256912231
-5.49700021743774414 2.17247724533081055 4.91056156158447266 -0.405693143606185913 -0.631250679492950439 0.661011099815368652
-2.99309515953063965 2.82205557823181152 5.49700021743774414 0.235377609729766846 -0.216369941830635071 0.947513282299041748
-3.44101834297180176 3.5069434642791748 3.50322270393371582 -0.882250726222991943 0.192882299423217773 0.429453253746032715
-3.82602334022521973 3.17638611793518066 3.30299234390258789 0.120520822703838348 -0.242794334888458252 -0.962561964988708496
-5.49700021743774414 4.44087457656860352 0.6775054931640625 -0.891681909561157227 0.281859368085861206 0.354201406240463257
-3.38361978530883789 3.76472282409667969 3.30299234390258789 0.0306098517030477524 -0.333379566669464111 -0.942295670509338379
-2.71279168128967285 3.18675136566162109 2.20570874214172363 -0.840781152248382568 0.475497454404830933 0.258822739124298096
-5.32355022430419922 4.96509122848510742 5.49700021743774414 -0.955526053905487061 -0.182264417409896851 0.231839746236801147
-0.736194610595703125 5.49700021743774414 3.85124373435974121 0.52526247501373291 0.676226019859313965 -0.516544044017791748
-2.15019655227661133 2.13594341278076172 2.76342248916625977 0.450724780559539795 -0.602063775062561035 -0.659064829349517822
-2.25574755668640137 2.1041264533996582 2.6997065544128418 0.592750310897827148 -0.540466189384460449 -0.597112596035003662
-1.40613853931427002 1.88430666923522949 2.84943318367004395 -0.516752064228057861 -0.339690625667572021 -0.78586113452911377
-2.18424177169799805 1.74943721294403076 2.95772790908813477 0.480871498584747314 -0.125447481870651245 -0.86777043342590332
-1.87973880767822266 2.09440016746520996 2.9021916389465332 0.0785255506634712219 -0.534399509429931641 -0.841576457023620605
-0.00300023844465613365 2.28634762763977051 2.996368408203125 0.569231629371643066 0.490807920694351196 0.659608185291290283
-4.23563051223754883 4.92873191833496094 0.00300047686323523521 0.0751795098185539246 0.239955827593803406 -0.967868447303771973
-2.25403738021850586 1.27149796485900879 2.75350737571716309 0.596131682395935059 0.451708137989044189 -0.663767099380493164
-0.326136112213134766 5.49700021743774414 3.19432258605957031 0.570909976959228516 0.759486496448516846 0.311836600303649902
-3.57336592674255371 3.43820047378540039 3.30299234390258789 0.0696430206298828125 0.274155080318450928 -0.959160566329956055
-0.00300000002607703209 5.26445484161376953 3.84306526184082031 0.685281991958618164 0.169943377375602722 -0.708172142505645752
-5.03110980987548828 4.04050111770629883 0.00300023844465613365 -0.49849545955657959 -0.129952594637870789 -0.857096612453460693
-0.326208353042602539 5.49700021743774414 0.01828765869140625 0.619427621364593506 0.620346605777740479 0.481123238801956177
-0.00300000002607703209 2.72311139106750488 0.0473997592926025391 0.854858100414276123 -0.518481135368347168 0.0198721457272768021
-2.31932759284973145 2.15369081497192383 2.47172665596008301 0.658636391162872314 -0.679287314414978027 -0.323677241802215576
-1.45847654342651367 5.49700021743774414 4.81474399566650391 0.424898773431777954 0.897913634777069092 -0.114943817257881165
-0.00300000002607703209 1.71895360946655273 4.87663364410400391 0.957255840301513672 -0.255911469459533691 -0.134798109531402588
-1.49092686176300049 1.57766377925872803 2.94982552528381348 -0.408714473247528076 0.0461564287543296814 -0.91149449348449707
-1.27430498600006104 1.88838183879852295 2.68190550804138184 -0.7166176438331604 -0.655169963836669922 -0.239189296960830688
-1.49727010726928711 2.22089552879333496 2.57992720603942871 -0.430447846651077271 -0.78089749813079834 -0.45267409086227417
-1.80952763557434082 2.26748275756835938 2.69749116897583008 0.0224998034536838531 -0.816342353820800781 -0.577129960060119629
-2.52522540092468262 2.32288026809692383 1.09599423408508301 0.505662024021148682 -0.427101761102676392 0.749593257904052734
-1.40298163890838623 1.90873539447784424 2.8344728946685791 -0.161381572484970093 -0.633639097213745117 -0.756609201431274414
-1.7655566930770874 1.59125995635986328 3.04613637924194336 0.00283233076333999634 0.0660181567072868347 -0.997814416885375977
-5.49700021743774414 5.13725852966308594 2.33351683616638184 -0.931021928787231445 -0.1270713210105896 -0.342127174139022827
-2.27752184867858887 1.65875911712646484 2.89980649948120117 0.553665399551391602 -0.0829394832253456116 -0.828598678112030029
-2.70960569381713867 2.94410943984985352 2.44517803192138672 -0.57603299617767334 0.808692038059234619 -0.119177103042602539
-1.80366921424865723 1.49739456176757812 3.03229999542236328 -0.00503878667950630188 0.162634134292602539 -0.986673593521118164
-0.00300047686323523521 -0.841846942901611328 4.73831272125244141 0.688500642776489258 -0.262778967618942261 0.675954222679138184
-1.77753353118896484 1.75414013862609863 3.04569196701049805 0.0223711170256137848 -0.158128350973129272 -0.987165093421936035
-1.48721694946289062 2.25654411315917969 2.32869768142700195 -0.342273145914077759 -0.928536415100097656 -0.143767952919006348
-0.16931605339050293 5.46462106704711914 0.00300000002607703209 0.805529236793518066 0.585915505886077881 -0.0884629711508750916
-1.94427084922790527 1.54095184803009033 3.03553390502929688 0.20723937451839447 0.127225428819656372 -0.969982266426086426
-4.39090633392333984 0.483530521392822266 0.74832528829574585 0.362582743167877197 0.0709452331066131592 -0.929247260093688965
-3.06111335754394531 3.92100048065185547 3.30299234390258789 -0.0624776296317577362 -0.883629024028778076 -0.464000344276428223
-3.46535897254943848 4.44351434707641602 1.26053047180175781 -0.352917104959487915 -0.709579288959503174 0.609874367713928223
