ply
format ascii 1.0
element vertex 371
property float x
property float y
property float z
property float nx
property float ny
property float nz
end_header
-0.000300000014249235392 3.62465357780456543 2.3895566463470459 0.994306206703186035 0.0442112348973751068 -0.0969558581709861755
-0.000300000014249235392 3.11446762084960938 4.46596527099609375 0.998017430305480957 0.0279846992343664169 -0.0563735999166965485
-3.57783865928649902 5.49970006942749023 2.37820982933044434 -0.00317000667564570904 0.992384731769561768 -0.123135313391685486
-1.1828535795211792 5.49970006942749023 3.76505684852600098 0.0535473749041557312 0.996389031410217285 -0.0658898279070854187
-5.49970006942749023 2.72359466552734375 4.56316947937011719 -0.997979164123535156 -0.0146579593420028687 -0.0618280805647373199
-5.49970006942749023 0.755607843399047852 2.4640510082244873 -0.990561425685882568 -0.0887114033102989197 -0.104490458965301514
-5.49970006942749023 0.64260411262512207 5.17014122009277344 -0.996426641941070557 -0.0831190943717956543 -0.0150018073618412018
-5.49970006942749023 4.55294990539550781 3.83698797225952148 -0.992191553115844727 0.100459665060043335 -0.0739163979887962341
-2.05483579635620117 4.15210628509521484 0.000300000014249235392 0.0161809567362070084 0.0631464794278144836 -0.997873067855834961
-2.82083511352539062 5.49970006942749023 3.9746241569519043 0.217659398913383484 0.966858625411987305 -0.133449211716651917
-2.82146573066711426 5.49970006942749023 3.97483992576599121 0.0078235650435090065 0.996877431869506836 -0.0785754844546318054
-5.49970006942749023 2.7010188102722168 4.00780534744262695 -0.996102809906005859 -0.012340964749455452 -0.0873309597373008728
-0.000300000014249235392 5.40528488159179688 3.24753999710083008 0.997901558876037598 -0.0512500181794166565 -0.0395717434585094452
-0.000300000014249235392 5.17391824722290039 1.19858431816101074 0.99190223217010498 0.0579804293811321259 -0.112996004521846771
-0.000300000014249235392 4.54953098297119141 3.60137438774108887 0.99340212345123291 0.0826222524046897888 -0.0795341804623603821
-2.67836260795593262 2.95662808418273926 1.92232668399810791 0.0918871164321899414 0.967796921730041504 0.234362587332725525
-2.67870712280273438 2.95652127265930176 1.92200279235839844 -0.321773886680603027 0.934840202331542969 -0.150117382407188416
-1.88170909881591797 2.71576094627380371 5.49970006942749023 -0.0505793727934360504 -0.259095162153244019 0.964526534080505371
-1.33768510818481445 5.49970006942749023 3.4085993766784668 0.202550157904624939 0.974163413047790527 0.0998949408531188965
-3.14114141464233398 3.34976887702941895 3.3002922534942627 0.144607439637184143 0.43255382776260376 -0.889935851097106934
-5.49970006942749023 2.62034034729003906 5.11132001876831055 -0.998971700668334961 0.0405192561447620392 -0.0203344393521547318
-0.000300000014249235392 4.12265777587890625 3.68655014038085938 0.994843482971191406 0.0693781003355979919 -0.0739806890487670898
-5.49970006942749023 1.61315381526947021 1.60233974456787109 -0.991064548492431641 -0.0363975875079631805 -0.128320708870887756
-4.66287040710449219 1.9272453784942627 0.000300000014249235392 -0.0270834732800722122 -0.0742241740226745605 -0.996873676776885986
-4.66392135620117188 1.92564558982849121 0.000300000014249235392 -0.317056149244308472 -0.601980984210968018 -0.732867121696472168
-4.66299343109130859 1.92748522758483887 0.000300000014249235392 -0.0609758570790290833 -0.0101452842354774475 -0.998087644577026367
-2.77870082855224609 3.14924526214599609 3.3002924919128418 -0.46016344428062439 -0.29701155424118042 -0.836680114269256592
-2.77850794792175293 3.14926552772521973 3.3002924919128418 0.0887349322438240051 -0.274935334920883179 -0.957359135150909424
-3.74435615539550781 5.49970006942749023 4.85029888153076172 -0.0402544513344764709 0.998575806617736816 -0.0350115858018398285
-5.49970006942749023 4.29903841018676758 1.51808977127075195 -0.985048413276672363 -0.0810564383864402771 -0.152017563581466675
-3.32864284515380859 5.49970006942749023 3.7695622444152832 0.000345617358107119799 0.996520042419433594 -0.0833521336317062378
-5.49970006942749023 3.28137540817260742 4.47314262390136719 -0.997629642486572266 0.0130094205960631371 -0.0675699636340141296
-1.23917710781097412 2.9434967041015625 0.000300000014249235392 -0.003725418820977211 -0.187058418989181519 -0.982341647148132324
-1.23905885219573975 2.94405603408813477 0.000300000014249235392 0.0471829809248447418 0.0352859720587730408 -0.998262763023376465
-0.000300000014249235392 3.58575820922851562 4.21022987365722656 0.994774222373962402 0.0602956116199493408 -0.0823937132954597473
-2.81646609306335449 3.63095283508300781 5.49970006942749023 0.229824677109718323 0.212915748357772827 0.949656486511230469
-2.81744146347045898 3.63080501556396484 5.49970006942749023 -0.901283919811248779 0.217613011598587036 0.374608904123306274
-2.81668543815612793 3.63063836097717285 5.49970006942749023 0.113312333822250366 0.0254397355020046234 0.993233561515808105
-5.49970006942749023 4.00832223892211914 4.70899200439453125 -0.997030436992645264 0.071617424488067627 -0.0283043812960386276
-3.66387462615966797 1.52570247650146484 0.000300000014249235392 -0.029795495793223381 -0.0115238158032298088 -0.999489545822143555
-0.000300000014249235392 3.53736495971679688 3.19530582427978516 0.995688319206237793 0.0273267365992069244 -0.0886457040905952454
-1.97149074077606201 5.49970006942749023 4.35884571075439453 0.0569812767207622528 0.997134506702423096 -0.0497581958770751953
-4.57892131805419922 5.49970006942749023 4.03411102294921875 0.0461914688348770142 0.986403346061706543 -0.157716706395149231
-4.58105373382568359 5.49970006942749023 4.03386926651000977 -0.562041580677032471 0.74207150936126709 -0.365293055772781372
-4.58019828796386719 5.49970006942749023 4.03492164611816406 -0.605950772762298584 0.629388809204101562 0.486511468887329102
-4.57999086380004883 5.49970006942749023 4.03468799591064453 -0.260541766881942749 0.965441405773162842 -0.00639309501275420189
-4.57887935638427734 5.49970006942749023 4.03469467163085938 0.791204094886779785 0.562614977359771729 0.239708930253982544
-4.57931661605834961 5.49970006942749023 4.0345458984375 -0.0509881936013698578 0.996309041976928711 -0.0690532326698303223
-3.50656461715698242 4.04490280151367188 3.30029201507568359 0.103565365076065063 0.254003256559371948 -0.961642622947692871
-3.5062718391418457 4.04477167129516602 3.30029201507568359 0.421721816062927246 0.0781881511211395264 -0.90334784984588623
-3.50707340240478516 4.04442739486694336 3.30029201507568359 0.131074562668800354 -0.112622760236263275 -0.984954595565795898
-3.50747013092041016 4.04480504989624023 3.30029201507568359 -0.0296649690717458725 0.0413267128169536591 -0.998705148696899414
-5.49970006942749023 1.27807497978210449 4.94187355041503906 -0.997928380966186523 -0.054495491087436676 -0.0341921038925647736
-2.21291255950927734 0.566106557846069336 5.49970006942749023 -0.046281229704618454 -0.163702085614204407 0.985423624515533447
-2.71850895881652832 5.49970006942749023 4.32379865646362305 -0.0500512383878231049 0.985316336154937744 0.163237303495407104
-2.71845388412475586 5.49970006942749023 4.32348728179931641 -0.0119646703824400902 0.998325705528259277 -0.0565900318324565887
-3.86276936531066895 5.49970006942749023 5.20729351043701172 -0.0531472526490688324 0.998474359512329102 -0.0149774374440312386
-0.000300000014249235392 2.35745930671691895 4.35832977294921875 0.996877491474151611 -0.0247370563447475433 -0.0749877914786338806
-3.94934177398681641 5.49970006942749023 3.89184212684631348 -0.0508545972406864166 0.996680259704589844 -0.0635788813233375549
-5.49970006942749023 2.86593961715698242 3.68016839027404785 -0.995786666870117188 -0.0166210681200027466 -0.0901810377836227417
-0.000300000014249235392 1.56938695907592773 2.14995312690734863 0.991112112998962402 -0.0295370649546384811 -0.129708006978034973
-0.000300000014249235392 4.93527841567993164 3.50710940361022949 0.994728326797485352 0.0650843009352684021 -0.0792433992028236389
-3.84688520431518555 5.49970006942749023 4.54804420471191406 -0.0486503057181835175 0.998245596885681152 -0.0337434373795986176
-4.80141353607177734 5.49970006942749023 4.58931875228881836 -0.0757378563284873962 0.996335864067077637 -0.0397315174341201782
-5.49970006942749023 5.41978597640991211 3.20109009742736816 -0.99512481689453125 -0.00985056813806295395 -0.0981293469667434692
-3.84914898872375488 5.49970006942749023 3.9969179630279541 -0.0806586146354675293 0.994468867778778076 -0.0672734901309013367
-0.000300000014249235392 0.721929550170898438 3.01680707931518555 0.993937253952026367 -0.0467429645359516144 -0.0995171889662742615
-0.000300000014249235392 3.70781230926513672 3.54261112213134766 0.996136784553527832 0.0508088394999504089 -0.0716226696968078613
-5.49970006942749023 1.92355632781982422 4.38405227661132812 -0.996531009674072266 -0.0278799943625926971 -0.0784123316407203674
-3.93222522735595703 5.2294464111328125 0.000300000014249235392 -0.653708159923553467 0.206302568316459656 -0.728083014488220215
-3.92958879470825195 5.22850942611694336 0.000300000014249235392 -0.282227367162704468 -0.0443794764578342438 -0.958320438861846924
-2.29867291450500488 0.579459428787231445 0.000300000014249235392 0.0140156550332903862 -0.0289786141365766525 -0.999481737613677979
-0.000300000014249235392 5.41817188262939453 5.19483089447021484 0.968392729759216309 -0.0260235816240310669 0.248069122433662415
-3.0336918830871582 5.49970006942749023 4.41763496398925781 0.461344152688980103 0.883423328399658203 -0.0820043012499809265
-3.03092169761657715 5.49970006942749023 4.4149775505065918 0.917787551879882812 0.0538079403340816498 -0.393409073352813721
-3.03609704971313477 5.49970006942749023 4.41692209243774414 -0.151258170604705811 0.761132717132568359 -0.630712211132049561
-3.0358734130859375 5.49970006942749023 4.4179377555847168 -0.040010351687669754 0.997717618942260742 -0.0543930567800998688
-2.92418193817138672 5.49970006942749023 5.45514917373657227 -0.0758176296949386597 0.238171443343162537 0.968259274959564209
-2.92409610748291016 5.49970006942749023 5.45392990112304688 -0.0320357605814933777 0.999486327171325684 -0.000838109466712921858
-2.9724574089050293 0.515140771865844727 5.49970006942749023 -0.3200206458568573 -0.330863088369369507 0.887759208679199219
-5.49970006942749023 1.7317126989364624 4.3866429328918457 -0.997977852821350098 -0.0184376891702413559 -0.060828719288110733
-0.000300000014249235392 2.95772147178649902 3.05509090423583984 0.99371713399887085 0.0083741750568151474 -0.111606352031230927
-3.97665166854858398 0.0451858043670654297 0.000300000014249235392 0.183717578649520874 0.622294783592224121 -0.760918557643890381
-3.97673463821411133 0.0449175834655761719 0.000300000014249235392 -0.0353989005088806152 -0.0764326527714729309 -0.996446132659912109
-4.23553323745727539 5.49970006942749023 5.01533746719360352 -0.0301329921931028366 0.999227523803710938 -0.0252244062721729279
-2.39321589469909668 5.49970006942749023 4.74116325378417969 0.161158904433250427 0.731050431728363037 0.663018167018890381
-2.39374971389770508 5.49970006942749023 4.73888635635375977 0.0188769567757844925 0.999369978904724121 -0.0300545617938041687
-1.03092515468597412 5.49970006942749023 4.16962909698486328 0.0613584704697132111 0.997018754482269287 -0.0467832237482070923
-0.000300000014249235392 3.07163476943969727 0.930618166923522949 0.991177082061767578 -0.00206120940856635571 -0.132528230547904968
-4.30721569061279297 0.796414852142333984 0.000300000014249235392 -0.344957262277603149 0.143636524677276611 -0.927562952041625977
-4.30674934387207031 0.796217560768127441 0.000300000014249235392 -0.331889420747756958 0.36645662784576416 -0.869228839874267578
-4.30665206909179688 0.796075224876403809 0.000300000014249235392 -0.0563491582870483398 -0.0526943095028400421 -0.997019529342651367
-0.000300000014249235392 2.91175341606140137 3.96968698501586914 0.997321605682373047 0.0257272180169820786 -0.0684665590524673462
-0.000300000014249235392 5.15577316284179688 4.89703559875488281 0.992115914821624756 0.123514316976070404 -0.0212165098637342453
-4.01837396621704102 2.61959147453308105 3.3002924919128418 -0.0304506756365299225 -0.0243937037885189056 -0.999238491058349609
-3.67836928367614746 5.49970006942749023 4.43042135238647461 -0.0231952555477619171 0.998961329460144043 -0.0392187014222145081
-5.49970006942749023 -0.140677452087402344 5.28882217407226562 -0.995614051818847656 -0.0930691808462142944 -0.00952400360256433487
-5.49970006942749023 3.21039485931396484 3.08425331115722656 -0.994369387626647949 0.03993244469165802 -0.0981573015451431274
-4.63373756408691406 -0.676408767700195312 0.000300000014249235392 -0.0404395610094070435 -0.0598393753170967102 -0.997388482093811035
-2.09285259246826172 -0.145848274230957031 0.000300000014249235392 0.528759121894836426 -0.0115648331120610237 -0.848693132400512695
-2.09337282180786133 -0.145882606506347656 0.000300000014249235392 0.0336448885500431061 -0.062833838164806366 -0.997456729412078857
-0.000300000014249235392 4.38458347320556641 5.04176235198974609 0.993352413177490234 0.11350124329328537 -0.0191967878490686417
-3.43900704383850098 2.72066926956176758 3.02412557601928711 -0.0741166621446609497 0.903853058815002441 0.421374320983886719
-3.43898940086364746 2.72067499160766602 3.02348184585571289 -0.0468377396464347839 0.953346133232116699 -0.298223644495010376
-3.43933725357055664 2.72056698799133301 3.02371597290039062 0.104353062808513641 0.88281714916229248 -0.457978427410125732
-3.43947672843933105 2.72052383422851562 3.02384042739868164 -0.331787079572677612 0.931756973266601562 -0.147465705871582031
-0.000300000014249235392 4.61252784729003906 5.32552146911621094 0.992829859256744385 0.119312599301338196 -0.00729681598022580147
-0.3499603271484375 4.12235116958618164 0.000300000014249235392 0.0572312958538532257 0.0364180989563465118 -0.997696459293365479
-0.000300000014249235392 1.99103796482086182 0.82946622371673584 0.990547716617584229 -0.00585377961397171021 -0.1370430588722229
-0.000300000014249235392 3.5615239143371582 4.03864765167236328 0.996848106384277344 0.0586026869714260101 -0.0534740090370178223
-3.61941266059875488 5.49970006942749023 4.75369453430175781 -0.0655975937843322754 0.997361183166503906 -0.0311056245118379593
-0.597271203994750977 5.49970006942749023 2.41063022613525391 -0.911191403865814209 0.332269847393035889 0.2435712069272995
-0.596525907516479492 5.49970006942749023 2.41055035591125488 -0.227514550089836121 0.88236081600189209 0.411917984485626221
-0.595664501190185547 5.49970006942749023 2.40891504287719727 -0.517089486122131348 0.612771213054656982 0.597603321075439453
-0.595433712005615234 5.49970006942749023 2.40868663787841797 -0.0726615116000175476 0.975291192531585693 0.208632007241249084
-0.595109462738037109 5.49970006942749023 2.40787601470947266 0.0534511841833591461 0.993245601654052734 -0.102985657751560211
-5.49970006942749023 3.00470280647277832 5.04828453063964844 -0.999316096305847168 0.0315859243273735046 -0.0192254167050123215
-3.58929157257080078 5.49970006942749023 5.1893463134765625 0.150474250316619873 0.774258971214294434 -0.614719867706298828
-3.58951282501220703 5.49970006942749023 5.19024848937988281 0.00265863887034356594 0.99991530179977417 -0.0127371717244386673
-1.79147529602050781 3.01715683937072754 0.000300000014249235392 -0.561525940895080566 0.625722825527191162 -0.54144209623336792
-1.79115033149719238 3.01675987243652344 0.000300000014249235392 0.0453580021858215332 -0.165074080228805542 -0.985237598419189453
-1.79106462001800537 3.01746201515197754 0.000300000014249235392 0.175187885761260986 0.35986819863319397 -0.916408181190490723
-1.79121589660644531 3.01732039451599121 0.000300000014249235392 -0.000536972598638385534 0.219705194234848022 -0.97556614875793457
-1.79108154773712158 3.01547884941101074 0.000300000014249235392 0.0357983000576496124 -0.0065390230156481266 -0.999337553977966309
-0.000300000014249235392 0.762514233589172363 4.16899394989013672 0.994491875171661377 -0.083559185266494751 -0.0632748976349830627
-3.84257364273071289 5.49970006942749023 3.36119270324707031 -0.333279997110366821 0.902266621589660645 -0.273567795753479004
-0.518523693084716797 3.40223145484924316 0.000300000014249235392 0.0528030842542648315 0.00368130719289183617 -0.998598098754882812
-5.49970006942749023 1.47194588184356689 4.29466676712036133 -0.996470391750335693 -0.0682676136493682861 -0.048848424106836319
-0.000300000014249235392 3.033416748046875 2.84637308120727539 0.995459079742431641 0.00476818811148405075 -0.0950703993439674377
-3.33899664878845215 5.49970006942749023 2.95478606224060059 -0.0311107467859983444 0.99524080753326416 -0.0923464447259902954
-0.000300000014249235392 4.99451255798339844 4.26466751098632812 0.992360949516296387 -0.113723136484622955 -0.0478185825049877167
-1.34872794151306152 5.49970006942749023 4.47720193862915039 0.954727530479431152 0.279726386070251465 0.101234756410121918
-1.34978246688842773 5.49970006942749023 4.47710895538330078 -0.102010391652584076 0.993365883827209473 0.0530837289988994598
-1.34952104091644287 5.49970006942749023 4.47695732116699219 0.0860664770007133484 0.994697928428649902 -0.0562897473573684692
-5.49970006942749023 3.11171746253967285 3.91002678871154785 -0.997858285903930664 0.00763885630294680595 -0.0649645552039146423
-3.73368000984191895 5.49970006942749023 3.95305538177490234 0.527063131332397461 0.235898539423942566 0.816429018974304199
-3.73435401916503906 5.49970006942749023 3.95199871063232422 -0.0129239968955516815 0.998020410537719727 -0.0615484155714511871
-5.27815485000610352 5.49970006942749023 2.38733363151550293 -0.05004100501537323 0.98608243465423584 -0.158546954393386841
-5.27837657928466797 5.49970006942749023 2.38651585578918457 -0.103204496204853058 0.255525499582290649 -0.961278080940246582
-5.27828121185302734 5.49970006942749023 2.38761258125305176 -0.0856811851263046265 0.990807294845581055 -0.104688212275505066
-0.000300000014249235392 3.23794770240783691 4.78893518447875977 0.99668508768081665 0.0672222599387168884 -0.0458256080746650696
-0.543445825576782227 5.49970006942749023 1.77734541893005371 -0.883791446685791016 0.419029176235198975 0.208151981234550476
-0.542791604995727539 5.49970006942749023 1.77716207504272461 0.0720188245177268982 0.990945339202880859 -0.113315604627132416
-0.000300000014249235392 5.07739496231079102 3.59487581253051758 0.993159115314483643 0.0961350947618484497 -0.0662795156240463257
-0.177334308624267578 5.49970006942749023 2.33278489112854004 0.0742324739694595337 0.992448985576629639 -0.0976447984576225281
-2.12351202964782715 5.49970006942749023 2.69824743270874023 0.00477894069626927376 0.995618104934692383 -0.0933894738554954529
-5.49970006942749023 -0.458161830902099609 0.0185482501983642578 -0.99995797872543335 0.000614972843322902918 0.00914328824728727341
-5.04957866668701172 -0.459696531295776367 0.000300000014249235392 -0.0472291894257068634 -0.0810359567403793335 -0.995591521263122559
-5.49970006942749023 0.30820155143737793 4.50320053100585938 -0.995810866355895996 -0.0756209120154380798 -0.0514006316661834717
-5.49970006942749023 3.66654539108276367 4.40312004089355469 -0.991086363792419434 0.101563192903995514 0.0862129777669906616
-0.000300000014249235392 -0.318329811096191406 2.6464838981628418 0.992528378963470459 -0.0846888870000839233 -0.0878358930349349976
-3.87298297882080078 5.49970006942749023 3.58013153076171875 0.0707316920161247253 0.968727588653564453 0.237831667065620422
-3.87305021286010742 5.49970006942749023 3.57988667488098145 -0.0169562939554452896 0.996542215347290039 -0.0813386216759681702
-4.59089469909667969 5.49970006942749023 4.36100101470947266 -0.0778705775737762451 0.995674967765808105 -0.0506702139973640442
-0.000300000014249235392 4.26757001876831055 4.60181999206542969 0.99476391077041626 0.0969515219330787659 -0.0323266088962554932
-0.000300000014249235392 3.51821374893188477 3.87084293365478516 0.995662450790405273 -0.077916361391544342 0.0508452542126178741
-3.52891755104064941 4.3927154541015625 3.30029201507568359 -0.56641685962677002 -0.0288013573735952377 -0.823615491390228271
-3.52865076065063477 4.39275026321411133 3.30029201507568359 0.197611749172210693 0.0790604278445243835 -0.977086961269378662
-3.53123664855957031 4.39328956604003906 3.30029201507568359 -0.252033352851867676 0.186418920755386353 -0.949593126773834229
-3.53017234802246094 4.392669677734375 3.30029201507568359 -0.0555801279842853546 0.110944606363773346 -0.992271184921264648
-2.10752701759338379 5.49970006942749023 0.876725435256958008 -0.44105413556098938 0.877418100833892822 0.188702628016471863
-0.05902862548828125 1.42498135566711426 0.000300000014249235392 0.0958906114101409912 0.400566190481185913 -0.911236345767974854
-0.0591435432434082031 1.42406976222991943 0.000300000014249235392 0.0648530349135398865 -0.0415929965674877167 -0.99702763557434082
-0.000300000014249235392 0.267279863357543945 5.39951324462890625 0.992208659648895264 -0.124551720917224884 -0.0029618625994771719
-5.49970006942749023 4.12308883666992188 4.75361919403076172 -0.997983455657958984 0.0511409305036067963 -0.0375962033867835999
-5.49970006942749023 1.79387044906616211 0.0687227249145507812 -0.989542841911315918 -0.0111978445202112198 -0.143803372979164124
-5.49970006942749023 4.9250330924987793 3.98376083374023438 -0.992556154727935791 0.105924047529697418 -0.0601026229560375214
-0.0842051506042480469 5.49970006942749023 3.0227057933807373 0.0965855792164802551 0.992879688739776611 -0.0697209015488624573
-0.000300000014249235392 1.69118726253509521 5.38117694854736328 0.998686790466308594 -0.0509318709373474121 -0.00552946235984563828
-0.000300000014249235392 -0.31134343147277832 3.17589926719665527 0.993338227272033691 -0.0726512670516967773 -0.0894477888941764832
-0.475963115692138672 -0.62316584587097168 0.000300000014249235392 -0.194974213838577271 0.404758930206298828 -0.893395304679870605
-0.475755691528320312 -0.623584747314453125 0.000300000014249235392 0.0407882630825042725 -0.0692161843180656433 -0.996767401695251465
-2.51817560195922852 5.49970006942749023 4.97777366638183594 -0.992605745792388916 0.111825890839099884 -0.0472105443477630615
-2.51551103591918945 5.49970006942749023 4.9778895378112793 0.00820297375321388245 0.99930274486541748 -0.0364235006272792816
-0.000300000014249235392 2.8747856616973877 2.16847109794616699 0.990935444831848145 0.0260668136179447174 -0.131785094738006592
-0.000300000014249235392 1.80780029296875 3.7945246696472168 0.994257152080535889 -0.0574491620063781738 -0.0902897641062736511
-0.385496377944946289 5.49970006942749023 2.01418042182922363 -0.106904417276382446 0.974100828170776367 -0.19924597442150116
-5.49970006942749023 2.41256809234619141 5.13324165344238281 -0.999290227890014648 0.0319581851363182068 -0.0199415069073438644
-5.49970006942749023 2.85314822196960449 2.01190948486328125 -0.990388333797454834 0.00470349844545125961 -0.13823409378528595
-0.000300000014249235392 3.76239109039306641 5.38113975524902344 0.997341156005859375 0.072652086615562439 -0.00567150488495826721
-4.71010875701904297 3.05167770385742188 5.49970006942749023 -0.14083583652973175 0.10660901665687561 0.984276473522186279
-4.71016454696655273 3.05169391632080078 5.49970006942749023 -0.308487117290496826 0.152061641216278076 0.938995838165283203
-0.000300000014249235392 2.30286359786987305 2.79521441459655762 0.995252013206481934 0.00121631880756467581 -0.0973227471113204956
-0.000300000014249235392 1.48182070255279541 4.66770601272583008 0.998024463653564453 -0.0532150343060493469 -0.0333972908556461334
-2.64882016181945801 5.49970006942749023 5.41613960266113281 -0.0282256007194519043 0.99959719181060791 -0.00293706613592803478
-0.000300000014249235392 2.10329174995422363 5.31311130523681641 0.999926090240478516 0.00737241655588150024 -0.00965775176882743835
-0.000300000014249235392 3.05266165733337402 4.13529396057128906 0.996900320053100586 -0.00569373834878206253 -0.0784674063324928284
-2.47722053527832031 2.47430324554443359 0.806418359279632568 0.947936177253723145 -0.280091822147369385 -0.15154382586479187
-1.86066818237304688 5.49970006942749023 4.12101840972900391 0.0173411741852760315 0.997593283653259277 -0.0671328157186508179
-3.81127500534057617 5.49970006942749023 3.97233915328979492 0.0430078841745853424 0.888549327850341797 0.456760674715042114
-3.8114783763885498 5.49970006942749023 3.97075152397155762 -0.0442766249179840088 0.997516155242919922 -0.0547809712588787079
-0.000300000014249235392 1.15058839321136475 4.72965335845947266 0.994230031967163086 -0.0984308645129203796 -0.042637702077627182
-0.000300000014249235392 5.02422904968261719 5.28380203247070312 0.996072590351104736 0.0881458371877670288 -0.00834421440958976746
-0.000300000014249235392 0.641693830490112305 5.21974468231201172 0.995653867721557617 -0.091871015727519989 -0.0152668580412864685
-2.98871374130249023 2.99029254913330078 3.3002924919128418 0.79673004150390625 -0.228216186165809631 -0.559587836265563965
-2.98915290832519531 2.99041056632995605 3.3002924919128418 -0.0406450405716896057 -0.0139318741858005524 -0.999076485633850098
-2.61306309700012207 5.26185321807861328 5.49970006942749023 0.104796737432479858 0.170682385563850403 0.979737281799316406
-4.22529935836791992 5.49970006942749023 4.08074140548706055 0.877759039402008057 0.470517784357070923 -0.0902885943651199341
-4.22580099105834961 5.49970006942749023 4.08086538314819336 0.184328868985176086 0.959641933441162109 0.212391749024391174
-4.22613668441772461 5.49970006942749023 4.08053302764892578 -0.477513939142227173 0.796502947807312012 -0.370895504951477051
-4.22596406936645508 5.49970006942749023 4.08065557479858398 -0.023393876850605011 0.99807286262512207 -0.0574730560183525085
-5.49970006942749023 0.758760213851928711 1.36797988414764404 -0.992369890213012695 -0.0505325682461261749 -0.11246480792760849
-5.49970006942749023 0.916397452354431152 4.54497575759887695 -0.967842161655426025 -0.0898229330778121948 0.234975516796112061
-0.000300000014249235392 3.11719560623168945 0.934680938720703125 0.991346240043640137 0.0426480099558830261 -0.124152332544326782
-2.98210525512695312 3.98523855209350586 3.3002922534942627 -0.142017364501953125 -0.0565971843898296356 -0.988244771957397461
-2.98202919960021973 3.98415207862854004 3.3002922534942627 -0.112030141055583954 -0.654004216194152832 -0.748149514198303223
-2.98167967796325684 3.98587870597839355 3.30029201507568359 0.269651532173156738 0.768584966659545898 -0.580142319202423096
-2.98182845115661621 3.98549652099609375 3.3002922534942627 -0.0308341365307569504 0.0516205690801143646 -0.998190581798553467
-5.49970006942749023 0.943248510360717773 3.41376638412475586 -0.982525944709777832 -0.17559535801410675 -0.0617164112627506256
-0.000300000014249235392 1.7536846399307251 0.596538782119750977 0.98961108922958374 -0.0278725326061248779 -0.141042351722717285
-5.49970006942749023 -0.657721996307373047 0.0213167667388916016 -0.995361685752868652 -0.0457192361354827881 0.0846459865570068359
-0.000300000014249235392 4.934356689453125 4.35065269470214844 0.99362415075302124 0.105750098824501038 -0.0390870608389377594
-0.000300000014249235392 0.322419643402099609 3.97300863265991211 0.992967367172241211 -0.102782666683197021 -0.0587496273219585419
-5.49970006942749023 -0.698080062866210938 1.60492539405822754 -0.990971863269805908 -0.0918163657188415527 -0.097695469856262207
-4.3445582389831543 5.49970006942749023 3.13652539253234863 -0.0525339953601360321 0.995031595230102539 -0.0845708698034286499
-0.000300000014249235392 5.32455921173095703 3.49778509140014648 0.992034316062927246 0.109233662486076355 -0.0627354905009269714
-5.49970006942749023 1.74458897113800049 4.1428675651550293 -0.996899545192718506 -0.0567924976348876953 -0.0544595532119274139
-2.25502419471740723 5.49970006942749023 5.06692695617675781 -0.858698844909667969 0.509055793285369873 0.0591477081179618835
-2.25450372695922852 5.49970006942749023 5.06688451766967773 0.048634607344865799 0.998497426509857178 -0.025248158723115921
-5.49970006942749023 5.27093315124511719 5.27161884307861328 -0.946056604385375977 0.293439388275146484 -0.137368693947792053
-5.49970006942749023 5.292877197265625 5.42352628707885742 -0.891070365905761719 0.448868155479431152 -0.0671637281775474548
-4.48941659927368164 4.78384304046630859 5.49970006942749023 -0.0827228650450706482 0.163744360208511353 0.983028292655944824
-0.000300000014249235392 1.11454391479492188 1.70295035839080811 0.99317169189453125 -0.022533368319272995 -0.11446419358253479
-2.26632881164550781 0.968433797359466553 1.65029621124267578 -0.0424259789288043976 0.0859335511922836304 -0.995397090911865234
-2.26592516899108887 0.967525839805603027 1.65029621124267578 -0.165111392736434937 -0.354613572359085083 -0.920319139957427979
-2.26532220840454102 0.967428028583526611 1.65029621124267578 0.632941782474517822 -0.593122661113739014 -0.497584223747253418
-2.26564979553222656 0.967756569385528564 1.65029621124267578 0.176612406969070435 -0.0948305651545524597 -0.979701578617095947
-2.26661252975463867 0.967797815799713135 1.65029621124267578 -0.88496696949005127 -0.0912034809589385986 -0.456634849309921265
-2.26601934432983398 0.967835903167724609 1.65029621124267578 0.0394950509071350098 -0.0723334327340126038 -0.996598124504089355
-0.000300000014249235392 0.568352222442626953 4.74236679077148438 0.996400952339172363 -0.0794046074151992798 -0.0296629089862108231
-5.49970006942749023 0.11053919792175293 4.87598848342895508 -0.995618581771850586 -0.0896221473813056946 -0.026671314612030983
-3.60262489318847656 5.49970006942749023 4.55644893646240234 -0.0472668707370758057 0.997053980827331543 -0.0604086965322494507
-3.50936627388000488 5.49970006942749023 4.66048431396484375 -0.0596926547586917877 0.99711078405380249 -0.0469769053161144257
-4.0353999137878418 5.49970006942749023 5.11578750610351562 -0.0802725926041603088 0.996677756309509277 -0.0137689961120486259
-3.27807188034057617 5.45304203033447266 0.000300000014249235392 0.22889961302280426 0.518507957458496094 -0.823865532875061035
-3.27830362319946289 5.4524540901184082 0.000300000014249235392 0.0356955714523792267 -0.00499281473457813263 -0.999350249767303467
-0.792314648628234863 5.49970006942749023 3.0229494571685791 0.0756802558898925781 0.994205892086029053 -0.0763354673981666565
-1.73790884017944336 5.49970006942749023 4.84754276275634766 0.0355310514569282532 0.999038338661193848 -0.0256880335509777069
-0.000300000014249235392 4.1556391716003418 3.12497115135192871 0.995007932186126709 0.0312793552875518799 -0.094766661524772644
-0.000300000014249235392 0.0760326385498046875 2.46423935890197754 0.991415619850158691 -0.0800027772784233093 -0.103413835167884827
-3.30083107948303223 4.41652059555053711 5.49970006942749023 -0.154088571667671204 0.300957232713699341 0.941106557846069336
-5.49970006942749023 2.10792303085327148 4.61784076690673828 -0.998500704765319824 -0.0219203289598226547 -0.0501576028764247894
-3.33829689025878906 3.64562678337097168 3.3002922534942627 0.109895452857017517 -0.101109221577644348 -0.988787055015563965
-3.15440464019775391 2.8573758602142334 3.3002924919128418 0.544276773929595947 0.305097192525863647 -0.781459152698516846
-3.15524053573608398 2.85698246955871582 3.3002924919128418 -0.0968821942806243896 0.0472002513706684113 -0.994175970554351807
-5.49970006942749023 1.94371795654296875 2.99280357360839844 -0.99096912145614624 -0.120129913091659546 -0.0595730133354663849
-3.99121451377868652 2.54936957359313965 3.29287123680114746 -0.374591201543807983 0.918590784072875977 -0.125985756516456604
-3.31894302368164062 1.43103349208831787 0.000300000014249235392 0.0329651348292827606 0.0763864368200302124 -0.99653315544128418
-3.32050395011901855 1.43113517761230469 0.000300000014249235392 -0.93751758337020874 0.290337800979614258 -0.191741257905960083
-3.31903481483459473 1.43067502975463867 0.000300000014249235392 0.00878303032368421555 -0.0199061241000890732 -0.999763250350952148
-0.000300000014249235392 1.80194687843322754 0.869538068771362305 0.990762889385223389 -0.0370864197611808777 -0.130435466766357422
-0.000300000014249235392 5.49639987945556641 3.74518299102783203 0.997703313827514648 -0.000638655445072799921 -0.0677315443754196167
-2.43290948867797852 5.49970006942749023 4.09516525268554688 0.00367145799100399017 0.997600317001342773 -0.0691382512450218201
-0.000300000014249235392 5.40009975433349609 1.84577560424804688 0.992079973220825195 0.0808240398764610291 -0.0961492210626602173
-4.33704662322998047 5.49970006942749023 3.6288001537322998 -0.0479972586035728455 0.996698498725891113 -0.0654835253953933716
-5.49970006942749023 3.15886187553405762 5.30156135559082031 -0.999863266944885254 -0.0134188299998641014 -0.0096543189138174057
-0.000300000014249235392 1.1452333927154541 3.94422340393066406 0.99338001012802124 -0.0798873677849769592 -0.0825476199388504028
-5.49970006942749023 4.27851152420043945 5.41295337677001953 -0.994568824768066406 0.104045592248439789 -0.00270618777722120285
-2.0546867847442627 5.38943815231323242 0.000300000014249235392 0.0206483658403158188 -0.0298499241471290588 -0.999341070652008057
-2.13097000122070312 5.49970006942749023 0.823768973350524902 -0.00274470890872180462 0.99179387092590332 -0.127817481756210327
-0.000300000014249235392 2.31060075759887695 0.465073347091674805 0.98942410945892334 -0.0202488899230957031 -0.143630459904670715
-0.667419672012329102 3.98801755905151367 0.000300000014249235392 0.575339317321777344 0.780850827693939209 -0.243426725268363953
-0.668109655380249023 3.98706459999084473 0.000300000014249235392 0.0636118650436401367 0.0308271870017051697 -0.997498452663421631
-0.000300000014249235392 3.31770992279052734 0.341401338577270508 0.976516962051391602 -0.0540286973118782043 0.208555623888969421
-0.403664112091064453 3.40614700317382812 0.000300000014249235392 0.493788093328475952 -0.460135668516159058 -0.737867534160614014
-0.403821706771850586 3.40636920928955078 0.000300000014249235392 0.141694605350494385 0.115350216627120972 -0.983166754245758057
-0.405220985412597656 3.40590739250183105 0.000300000014249235392 -0.411955714225769043 -0.00211738678626716137 -0.911201357841491699
-5.48164749145507812 5.49970006942749023 4.47814130783081055 -0.763301193714141846 0.371180325746536255 0.528768777847290039
-5.48121929168701172 5.49970006942749023 4.47771263122558594 -0.532806515693664551 0.846225500106811523 -0.00441937707364559174
-5.48073768615722656 5.49970006942749023 4.47768878936767578 -0.0976482033729553223 0.994519829750061035 -0.0373499579727649689
-5.49970006942749023 1.71309399604797363 5.00032234191894531 -0.986851215362548828 -0.140709385275840759 0.0795325040817260742
-1.71578967571258545 -0.326102495193481445 0.000300000014249235392 0.0929784327745437622 0.898534774780273438 -0.428940802812576294
-1.71588718891143799 -0.326697111129760742 0.000300000014249235392 -0.107165507972240448 0.110531598329544067 -0.988078117370605469
-1.71536934375762939 -0.32692718505859375 0.000300000014249235392 0.00322822039015591145 0.145491242408752441 -0.989354252815246582
-1.00300717353820801 2.29850673675537109 0.23603445291519165 -0.280452638864517212 -0.958799540996551514 0.0452736467123031616
-0.325566530227661133 4.66817760467529297 0.000300000014249235392 -0.467233568429946899 0.427617669105529785 -0.77384483814239502
-0.325384616851806641 4.66797447204589844 0.000300000014249235392 0.00241488474421203136 -0.12210555374622345 -0.992514133453369141
-0.324697732925415039 4.66831254959106445 0.000300000014249235392 0.880218565464019775 -0.100163944065570831 -0.463877677917480469
-0.325248479843139648 4.66839408874511719 0.000300000014249235392 0.0611520558595657349 0.0553109757602214813 -0.996594727039337158
-0.000300000014249235392 0.623226642608642578 1.51421332359313965 0.991579294204711914 -0.0738267526030540466 -0.106394961476325989
-0.000300000014249235392 1.60594844818115234 4.29589271545410156 0.996433794498443604 -0.0483193770051002502 -0.0691726803779602051
-1.52281391620635986 5.49970006942749023 5.41538333892822266 0.213418543338775635 0.894385457038879395 0.393099397420883179
-1.52294862270355225 5.49970006942749023 5.4150242805480957 0.0795451104640960693 0.996826052665710449 -0.00321772880852222443
-0.0393891334533691406 5.49970006942749023 5.45064830780029297 0.000244748662225902081 0.956254243850708008 -0.292536646127700806
-0.0391354560852050781 5.49970006942749023 5.45170402526855469 0.107958763837814331 0.99415510892868042 -0.000704815902281552553
-0.000300000014249235392 1.64112389087677002 3.85202622413635254 0.995798408985137939 -0.0193555932492017746 -0.0895027890801429749
-4.37779426574707031 2.27659869194030762 0.000300000014249235392 0.128484576940536499 -0.55213695764541626 -0.823793888092041016
-4.37778139114379883 2.27691793441772461 0.000299761595670133829 0.297456115484237671 -0.687798559665679932 -0.662157833576202393
-4.37790060043334961 2.27723503112792969 0.000300000014249235392 0.0518922768533229828 0.0184332188218832016 -0.99848252534866333
-4.48587369918823242 2.2528541088104248 0.000300000014249235392 -0.319950878620147705 -0.0722881704568862915 -0.944672346115112305
-4.37789440155029297 2.27674484252929688 0.000300000014249235392 0.339427441358566284 -0.432466894388198853 -0.83532106876373291
-4.37830352783203125 2.27722287178039551 0.000300000014249235392 -0.0576970130205154419 0.0151665806770324707 -0.998218834400177002
-5.49970006942749023 2.56315255165100098 4.22713184356689453 -0.996719062328338623 0.0298467520624399185 -0.0752342790365219116
-5.49970006942749023 4.40009784698486328 4.98730039596557617 -0.996920466423034668 0.076369360089302063 -0.0178092624992132187
-3.92225360870361328 0.441564798355102539 0.000300000014249235392 -0.0250890962779521942 -0.0446476973593235016 -0.998687624931335449
-0.000300000014249235392 0.498892545700073242 4.67348146438598633 0.997466564178466797 -0.0598514415323734283 -0.0384478606283664703
-0.000300000014249235392 5.37521696090698242 2.23901557922363281 0.938244104385375977 -0.0346178524196147919 -0.344237565994262695
-5.49970006942749023 0.584389925003051758 4.89267635345458984 -0.996194005012512207 -0.0836381986737251282 -0.0245377607643604279
-5.49970006942749023 2.68374180793762207 3.94629240036010742 -0.996844351291656494 0.0274997744709253311 -0.0744642093777656555
-5.49970006942749023 -0.00117802619934082031 3.96185445785522461 -0.9945107102394104 -0.079557955265045166 -0.067962251603603363
-5.49970006942749023 0.546782493591308594 4.79852676391601562 -0.998261451721191406 -0.0493559017777442932 -0.0322176963090896606
-2.45562267303466797 2.35235738754272461 1.65029633045196533 0.0344992727041244507 -0.661332488059997559 -0.749299049377441406
-0.000299761595670133829 0.917422652244567871 1.79348158836364746 0.862111806869506836 -0.504218459129333496 0.0502692833542823792
-2.45555305480957031 2.35359907150268555 1.65029633045196533 0.180378526449203491 -0.0703470036387443542 -0.981078386306762695
-2.45599269866943359 2.3537590503692627 1.65029633045196533 0.500880718231201172 -0.120444536209106445 -0.857094883918762207
-2.45598053932189941 2.35375547409057617 1.65029633045196533 0.525512397289276123 -0.128294125199317932 -0.841057240962982178
-2.45655059814453125 2.35387372970581055 1.65029633045196533 -0.0191188398748636246 -0.0241043958812952042 -0.999526560306549072
-0.000300000014249235392 3.88587713241577148 0.708016872406005859 0.989679157733917236 0.0304468981921672821 -0.140028610825538635
-0.000300000014249235392 0.282057523727416992 2.29966235160827637 0.99308478832244873 -0.0583831705152988434 -0.101852238178253174
-0.000300000014249235392 1.47953033447265625 4.0664677619934082 0.997661590576171875 -0.0392269864678382874 -0.0559685006737709045
-4.38709211349487305 5.49970006942749023 2.94338059425354004 -0.218345463275909424 0.975761651992797852 0.0146433841437101364
-5.49970006942749023 5.49845695495605469 0.16334080696105957 -0.768283605575561523 -0.000286309805233031511 -0.640109419822692871
-4.38553953170776367 5.49970006942749023 2.94285726547241211 -0.0461300574243068695 0.993476033210754395 -0.104294456541538239
-0.000300000014249235392 2.79816532135009766 3.30748701095581055 0.994208931922912598 -0.000269781914539635181 -0.107463531196117401
-0.365157365798950195 5.49970006942749023 3.18281412124633789 0.0927927717566490173 0.991730332374572754 -0.0886579602956771851
-3.68580365180969238 5.49970006942749023 4.38199663162231445 -0.0631125494837760925 0.997044563293457031 -0.0438049659132957458
-0.000300000014249235392 3.00136685371398926 5.36512565612792969 0.999517083168029785 0.0303021278232336044 -0.00687256874516606331
-0.000300000014249235392 1.32193136215209961 1.15646004676818848 0.990946054458618164 -0.0359526090323925018 -0.129356786608695984
-1.89388740062713623 2.79322552680969238 0.000300000014249235392 -0.221527695655822754 -0.108755901455879211 -0.969070494174957275
-1.89309585094451904 2.79320883750915527 0.000300000014249235392 0.282095164060592651 -0.111903242766857147 -0.952837824821472168
-2.06427741050720215 4.22226476669311523 0.000300000014249235392 0.00989563670009374619 0.247900098562240601 -0.968735039234161377
-3.83526039123535156 -0.580372095108032227 0.000300000014249235392 -0.0979134440422058105 0.457281738519668579 -0.883915305137634277
-3.83506464958190918 -0.581012248992919922 0.000300000014249235392 0.316142618656158447 -0.488244503736495972 -0.813431680202484131
-3.8351893424987793 -0.580855846405029297 0.000300000014249235392 -0.0274569448083639145 -0.0785874053835868835 -0.996528983116149902
-0.000300000014249235392 2.731842041015625 4.36139488220214844 0.997283279895782471 0.0273235924541950226 -0.0684057548642158508
-2.39037919044494629 5.49970006942749023 4.93318271636962891 -0.00186693749856203794 0.999626219272613525 -0.0272721052169799805
-5.49970006942749023 0.90826261043548584 0.797502279281616211 -0.992169439792633057 -0.0294712148606777191 -0.121371708810329437
-5.49970006942749023 2.97087359428405762 4.30031681060791016 -0.998314976692199707 0.0070865401066839695 -0.057591412216424942
-0.000300000014249235392 2.84563541412353516 5.32588577270507812 0.999104738235473633 0.0410301424562931061 -0.0103034917265176773
-0.000300000014249235392 4.48351478576660156 1.47700273990631104 0.990474700927734375 0.0820864662528038025 -0.110551103949546814
-0.000300000014249235392 -0.270755290985107422 2.87401986122131348 0.993580758571624756 -0.0824809148907661438 -0.0774211883544921875
-5.49970006942749023 3.01077127456665039 4.40704727172851562 -0.997887730598449707 -0.0126067493110895157 -0.0637262985110282898
-5.49970006942749023 1.88762593269348145 3.12741470336914062 -0.992151200771331787 -0.0214426033198833466 -0.123191587626934052
-0.000300000014249235392 4.16509008407592773 4.67914247512817383 0.993728280067443848 0.105847418308258057 -0.0360603854060173035
-5.49970006942749023 3.0106651782989502 4.39754819869995117 -0.997980117797851562 0.0199439693242311478 -0.0603151433169841766
-0.000300000014249235392 5.28131103515625 1.04113161563873291 0.990482449531555176 0.0756130218505859375 -0.115009427070617676
-1.71945285797119141 5.09482288360595703 5.49970006942749023 0.325418084859848022 -0.206579342484474182 0.922728538513183594
-2.35731816291809082 5.49970006942749023 3.69165587425231934 -0.223871245980262756 0.901913225650787354 0.369369953870773315
-2.3569176197052002 5.49970006942749023 3.69051742553710938 -0.0935516655445098877 0.980264842510223389 -0.174151629209518433
-0.000300000014249235392 1.08118891716003418 2.21983027458190918 0.993153929710388184 -0.0405918098986148834 -0.109533272683620453
-0.000300000014249235392 2.02048802375793457 5.06078147888183594 0.999430656433105469 -0.0231975298374891281 -0.0245009250938892365
-5.49970006942749023 5.48636531829833984 4.71630382537841797 -0.992338180541992188 0.118811778724193573 -0.0338911972939968109
-5.49970006942749023 0.805797934532165527 4.32175827026367188 -0.995611310005187988 -0.0832791998982429504 -0.0426920801401138306
-5.49970006942749023 2.58966326713562012 5.42444992065429688 -0.999988019466400146 -0.00431198067963123322 -0.00231252051889896393
-0.000300000014249235392 4.54194021224975586 4.65901470184326172 0.993075072765350342 0.111873626708984375 -0.0358616523444652557
-5.49970006942749023 2.61817359924316406 5.41681098937988281 -0.998559832572937012 0.0535761192440986633 -0.00281446077860891819
-0.000300000014249235392 2.02935910224914551 0.609147548675537109 0.991096377372741699 0.00726447673514485359 -0.132947355508804321
-0.000300000014249235392 0.832858085632324219 3.56076383590698242 0.993925213813781738 -0.0493057146668434143 -0.0983949527144432068
-5.49970006942749023 1.6812673807144165 3.93311166763305664 -0.995761990547180176 -0.0391184873878955841 -0.0832329839468002319
-2.6089015007019043 1.20570063591003418 1.65029621124267578 -0.262034505605697632 -0.303408920764923096 -0.916122734546661377
-2.60881900787353516 1.20579302310943604 1.65029621124267578 -0.0104372939094901085 -0.0229286607354879379 -0.99968254566192627
-5.49970006942749023 1.56389701366424561 3.82655048370361328 -0.996545255184173584 -0.0503157302737236023 -0.0660745352506637573
-4.12975072860717773 2.72597742080688477 3.3002924919128418 0.0147162368521094322 -0.72297745943069458 -0.690714836120605469
-4.12974834442138672 2.72623920440673828 3.3002924919128418 0.0276159867644309998 -0.17081102728843689 -0.98491668701171875
-4.13050460815429688 2.7269439697265625 3.3002924919128418 -0.204510718584060669 -0.00639748619869351387 -0.978843331336975098
-4.12972021102905273 2.72651529312133789 3.3002924919128418 0.348140716552734375 -0.379897236824035645 -0.857015728950500488
-4.13011741638183594 2.72686600685119629 3.3002924919128418 -0.0651917979121208191 -0.040912184864282608 -0.997033655643463135
-2.95724868774414062 3.96567845344543457 3.17713165283203125 -0.269959062337875366 -0.953606367111206055 -0.133255630731582642
-2.95738792419433594 3.96612763404846191 3.17718887329101562 -0.962167620658874512 -0.266786128282546997 -0.0553046166896820068
-2.95737886428833008 3.96609854698181152 3.17683911323547363 -0.761669039726257324 -0.643331766128540039 0.0773597657680511475
-2.95742130279541016 3.96623516082763672 3.17676973342895508 -0.959136605262756348 -0.242538541555404663 -0.145712152123451233
-0.000300000014249235392 0.934262514114379883 3.06770205497741699 0.994690179824829102 -0.0478004850447177887 -0.0911397635936737061
-0.000300000014249235392 4.28279209136962891 3.20626235008239746 0.992848515510559082 0.0639942660927772522 -0.100778952240943909
-5.49970006942749023 3.80893468856811523 3.28010964393615723 -0.993209719657897949 0.0726781412959098816 -0.0908422693610191345
-0.000300000014249235392 1.10122799873352051 5.10012531280517578 0.996452748775482178 -0.0821281671524047852 -0.0183494798839092255
-0.000300000014249235392 4.52129650115966797 3.90127992630004883 0.991678953170776367 0.11104641854763031 -0.0651264935731887817
-2.41167330741882324 2.02377033233642578 1.65029633045196533 -0.224279329180717468 0.236914768815040588 -0.945288419723510742
-2.41135907173156738 2.02367949485778809 1.65029633045196533 0.172840207815170288 0.132453992962837219 -0.976003170013427734
-2.41252899169921875 2.02269124984741211 1.65029633045196533 0.039036136120557785 0.00474416883662343025 -0.99922645092010498
-2.55650162696838379 3.17346382141113281 0.000300000014249235392 -0.0484789982438087463 -0.276053816080093384 -0.959918677806854248
-2.55626964569091797 3.17359256744384766 0.000300000014249235392 0.581963539123535156 0.113601759076118469 -0.805240929126739502
