ply
format ascii 1.0
element vertex 379
property float x
property float y
property float z
property float nx
property float ny
property float nz
end_header
-0.00300000002607703209 3.27638053894042969 3.52553844451904297 0.978786468505859375 -0.0508505925536155701 -0.198472261428833008
-3.95902180671691895 3.9092109203338623 5.49700021743774414 -0.85248875617980957 -0.420709192752838135 0.310268759727478027
-3.57760858535766602 5.49700021743774414 3.4776298999786377 -0.337206661701202393 0.938432931900024414 0.075068935751914978
-4.11105012893676758 0.779673218727111816 0.529784142971038818 -0.0627692639827728271 -0.811979234218597412 0.580301463603973389
-0.00300047686323523521 -0.230307579040527344 4.39949131011962891 0.555076122283935547 -0.831691563129425049 -0.0134006412699818611
-0.00299976160749793053 3.96738815307617188 2.92795705795288086 0.807855725288391113 -0.330943852663040161 -0.487693846225738525
-5.49700021743774414 5.29225301742553711 4.23009395599365234 -0.717855215072631836 -0.197711795568466187 0.667528271675109863
-2.92521476745605469 5.49700021743774414 4.56215381622314453 0.283300042152404785 0.949329495429992676 0.136067986488342285
-3.87481045722961426 -0.485005319118499756 0.821793198585510254 -0.0159745011478662491 -0.954570531845092773 0.297556489706039429
-3.39968013763427734 3.6078193187713623 3.57190513610839844 -0.35350605845451355 -0.279617488384246826 0.892663180828094482
-2.43817257881164551 2.61459493637084961 0.846688449382781982 0.88584977388381958 0.245032042264938354 0.393991738557815552
-4.13540410995483398 4.23566007614135742 0.598192930221557617 0.242802038788795471 -0.2852020263671875 -0.927203834056854248
-1.14368164539337158 5.3082275390625 5.49700021743774414 0.0398137271404266357 -0.165331244468688965 0.985434114933013916
-2.2084507942199707 0.201417207717895508 5.49700021743774414 -0.0808392763137817383 0.179854243993759155 0.980365991592407227
-5.49700021743774414 2.26763820648193359 3.64335441589355469 -0.90370863676071167 -0.383607536554336548 0.190147310495376587
-2.21577906608581543 1.48766458034515381 2.91683149337768555 0.296550542116165161 0.0486930608749389648 -0.95377504825592041
-4.01833248138427734 5.49700021743774414 3.44211816787719727 -0.192848876118659973 0.869887053966522217 -0.453988790512084961
-1.87141966819763184 4.33431053161621094 5.49700021743774414 0.00182346440851688385 -0.626432538032531738 0.779473483562469482
-3.41882896423339844 3.24994421005249023 3.30299234390258789 -0.098254859447479248 -0.0751476958394050598 -0.992319941520690918
-1.35914480686187744 2.00634098052978516 2.71610283851623535 -0.39107125997543335 -0.436673194169998169 -0.810172677040100098
-5.49700021743774414 4.73875045776367188 1.60898768901824951 -0.879307031631469727 -0.171502918004989624 -0.444303810596466064
-5.49700021743774414 1.03240871429443359 0.0546689033508300781 -0.827984213829040527 -0.560212790966033936 0.0245718695223331451
-5.49700021743774414 1.7518765926361084 0.183015823364257812 -0.891855597496032715 -0.431681513786315918 0.135072857141494751
-0.00300023844465613365 5.3584752082824707 3.04835128784179688 0.821043789386749268 -0.0350326597690582275 -0.569789230823516846
-3.89310407638549805 2.52158260345458984 5.49700021743774414 0.088769868016242981 0.232062637805938721 0.968641757965087891
-1.99244165420532227 5.49700021743774414 0.236351966857910156 0.309518367052078247 0.941486895084381104 0.133419767022132874
-2.22652816772460938 2.17561006546020508 2.62604355812072754 0.539909482002258301 -0.513943195343017578 -0.666603446006774902
-2.52389955520629883 5.04304742813110352 5.49700021743774414 0.442230403423309326 0.70345073938369751 0.556407630443572998
-3.85531091690063477 -0.220671743154525757 0.74832528829574585 0.377706289291381836 0.717854082584381104 -0.584827661514282227
-0.00300023844465613365 3.28388237953186035 1.2060244083404541 0.605540812015533447 -0.427275031805038452 -0.671383917331695557
-3.01034832000732422 4.14596462249755859 0.844099640846252441 -0.803621530532836914 -0.170039102435112 0.570332527160644531
-5.49700021743774414 3.80072736740112305 4.50018548965454102 -0.832443892955780029 -0.144705355167388916 0.53488081693649292
-3.83162856101989746 5.49700021743774414 5.31411218643188477 -0.11351931095123291 0.883588910102844238 0.454294890165328979
-5.49700021743774414 2.12606239318847656 0.448710441589355469 -0.503539025783538818 0.667294085025787354 0.54878687858581543
-3.35329771041870117 2.68250393867492676 0.00300000002607703209 -0.602043330669403076 -0.00518276169896125793 -0.798446595668792725
-0.00300023844465613365 2.53787422180175781 3.73946905136108398 0.672562181949615479 -0.736916422843933105 0.0679287388920783997
-5.49700021743774414 5.46644401550292969 5.34077072143554688 -0.810918986797332764 -0.0204353239387273788 0.58480149507522583
-1.74760127067565918 1.36165058612823486 2.97562336921691895 0.049234345555305481 0.143125981092453003 -0.988479137420654297
-2.04963278770446777 1.51221263408660889 3.00423216819763184 0.341116368770599365 0.0913141742348670959 -0.935575485229492188
-0.992151021957397461 5.49700021743774414 0.405301570892333984 0.586839258670806885 0.677543282508850098 0.443344980478286743
-2.8802638053894043 3.72661995887756348 0.887931764125823975 -0.435570776462554932 -0.433537036180496216 -0.788874983787536621
-2.18810224533081055 2.08722257614135742 2.78639554977416992 0.368678301572799683 -0.54336392879486084 -0.754209518432617188
-4.90810298919677734 3.12376308441162109 5.49700021743774414 -0.69225078821182251 -0.110858559608459473 0.713091194629669189
-3.02531075477600098 3.49949073791503906 3.30299234390258789 0.439202606678009033 0.25188899040222168 -0.862353205680847168
-5.49700021743774414 5.48209762573242188 4.15401172637939453 -0.933543503284454346 -0.00463792914524674416 -0.358434051275253296
-4.23658561706542969 3.22687458992004395 3.51802444458007812 -0.0714864432811737061 0.76781165599822998 0.636674940586090088
-3.48255062103271484 3.3269808292388916 3.50137114524841309 -0.931190013885498047 -0.160084307193756104 0.327502965927124023
-3.61675739288330078 5.43431997299194336 5.49700021743774414 0.0543428324162960052 -0.619318783283233643 0.783256769180297852
-1.50086987018585205 1.659934401512146 2.96207785606384277 -0.159685432910919189 -0.168042302131652832 -0.972760200500488281
-0.00300000002607703209 4.20743846893310547 4.20128059387207031 0.788660049438476562 -0.525787770748138428 -0.318688809871673584
-2.66114616394042969 4.69219398498535156 5.49700021743774414 -0.120013080537319183 -0.012045782059431076 0.992699205875396729
-3.23756599426269531 1.24555611610412598 5.49700021743774414 -0.109563954174518585 -0.73092883825302124 0.673601329326629639
-5.49700021743774414 1.72282242774963379 5.39081573486328125 -0.160438671708106995 -0.982179939746856689 0.0978879183530807495
-2.56303310394287109 2.19618511199951172 0.687381088733673096 0.951705336570739746 -0.181856632232666016 0.247356235980987549
-0.00299952318891882896 4.16848134994506836 4.37611293792724609 0.942137241363525391 -0.290284782648086548 -0.167666956782341003
-2.99161458015441895 4.08557415008544922 3.21786212921142578 -0.807151734828948975 -0.58501744270324707 0.0791245549917221069
-4.09302425384521484 4.8018798828125 5.49700021743774414 -0.345990628004074097 -0.579008519649505615 0.738267958164215088
-5.49700021743774414 4.35639476776123047 4.26050519943237305 -0.861285984516143799 0.49888727068901062 -0.0964255332946777344
-2.67938494682312012 2.95348405838012695 2.43285751342773438 -0.29607805609703064 0.598113954067230225 0.744713008403778076
-3.11917400360107422 4.49677848815917969 2.7592923641204834 -0.633422613143920898 -0.200899168848991394 0.747271895408630371
-3.71685099601745605 4.33727645874023438 5.49700021743774414 -0.501614809036254883 -0.824466586112976074 0.261987417936325073
-0.00300000002607703209 4.91508197784423828 0.336075544357299805 0.701939880847930908 -0.179014533758163452 0.689372360706329346
-0.00300000002607703209 2.94437313079833984 2.3188939094543457 0.881370663642883301 -0.0744791626930236816 -0.466517478227615356
-3.32692718505859375 -0.0490206107497215271 0.679708600044250488 -0.901984095573425293 0.248414725065231323 0.353149920701980591
-3.63185000419616699 5.14325237274169922 5.49700021743774414 -0.942987203598022461 -0.126373559236526489 0.307903975248336792
-5.49700021743774414 -0.90784764289855957 0.297608852386474609 -0.321805298328399658 0.067981816828250885 0.944362103939056396
-0.00300047686323523521 2.39668583869934082 3.1038053035736084 0.744160890579223633 -0.545891046524047852 -0.38500329852104187
-5.49700021743774414 5.45220708847045898 4.76751422882080078 -0.835532009601593018 -0.0508276559412479401 0.547085702419281006
-4.70577526092529297 5.49700021743774414 2.5970757007598877 -0.695504486560821533 0.405335217714309692 0.593276381492614746
-5.16112852096557617 3.8286900520324707 5.49700021743774414 -0.777160048484802246 0.205664888024330139 0.594747304916381836
-2.54569864273071289 -0.303330421447753906 5.49700021743774414 0.157816097140312195 -0.838042914867401123 0.5222817063331604
-5.49700021743774414 5.26373195648193359 5.22164678573608398 -0.739844560623168945 -0.545861601829528809 -0.393274813890457153
-4.48693990707397461 4.62029886245727539 5.49700021743774414 0.223518684506416321 -0.384216457605361938 0.895777404308319092
-5.49700021743774414 4.56936836242675781 3.63476109504699707 -0.275876373052597046 0.80559307336807251 0.524320542812347412
-4.24688529968261719 1.8089601993560791 5.49700021743774414 -0.276973456144332886 -0.759210586547851562 0.588969290256500244
-4.54838943481445312 5.47666215896606445 5.49700021743774414 -0.37454560399055481 0.563218951225280762 0.736545979976654053
-0.00300000002607703209 1.71512126922607422 2.93884158134460449 0.995373308658599854 -0.0960585176944732666 0.00217747688293457031
-3.34583711624145508 4.89371109008789062 5.49700021743774414 0.759666740894317627 -0.506814956665039062 0.407486230134963989
-4.93206882476806641 5.11640453338623047 5.49700021743774414 -0.482138961553573608 -0.753476142883300781 0.447007477283477783
-4.06497955322265625 5.46606922149658203 5.49700021743774414 0.343065798282623291 -0.581629753112792969 0.737572133541107178
-2.42166256904602051 1.53979301452636719 2.71837449073791504 0.682065129280090332 0.0197625085711479187 -0.731024444103240967
-2.47291421890258789 2.49817514419555664 1.27243638038635254 0.827875137329101562 -0.0360082536935806274 0.559755444526672363
-5.49700021743774414 -0.610014200210571289 3.7785179615020752 -0.602118909358978271 -0.142484903335571289 0.785589456558227539
-5.49700021743774414 4.98416948318481445 4.45862579345703125 -0.951506972312927246 -0.271912217140197754 -0.143868669867515564
-5.49700021743774414 4.45025300979614258 4.08198165893554688 -0.809138178825378418 -0.225300788879394531 0.542710721492767334
-3.02710652351379395 4.19998693466186523 0.0053863525390625 -0.988633155822753906 -0.150337249040603638 0.00179970834869891405
-0.00300000002607703209 5.46331310272216797 4.47475528717041016 0.999667346477508545 -0.0205123685300350189 0.0156362876296043396
-4.37578582763671875 3.87396335601806641 5.49700021743774414 -0.488475382328033447 0.252477794885635376 0.835252463817596436
-3.61705303192138672 5.49700021743774414 4.83627700805664062 0.0916146934032440186 0.97603309154510498 0.197398364543914795
-5.49700021743774414 1.65099632740020752 1.77822661399841309 -0.488639295101165771 -0.445291876792907715 -0.750297784805297852
-3.7533271312713623 1.94530332088470459 5.49700021743774414 0.192923560738563538 -0.465463042259216309 0.863785028457641602
-0.901125669479370117 2.52166748046875 0.00300000002607703209 0.555639743804931641 -0.681043028831481934 -0.476911783218383789
-2.84824681282043457 1.24043107032775879 0.594184041023254395 0.763445496559143066 -0.40568050742149353 0.502567648887634277
-1.71439909934997559 1.32184171676635742 2.94764423370361328 -0.109480582177639008 0.165169954299926758 -0.980169892311096191
-3.50812649726867676 3.71024870872497559 3.48444676399230957 -0.714064538478851318 0.613219678401947021 0.337747663259506226
-0.367350101470947266 1.31381511688232422 5.49700021743774414 0.371068567037582397 -0.665166735649108887 0.647967100143432617
-5.49700021743774414 4.55084609985351562 5.4996800422668457 -0.981000244617462158 -0.177937477827072144 0.0773099586367607117
-0.795292139053344727 5.28754758834838867 5.49700021743774414 -0.21560312807559967 -0.075736023485660553 0.973539590835571289
-1.69026494026184082 3.39629173278808594 5.49700021743774414 0.712236285209655762 0.233879148960113525 0.6618308424949646
-3.47405695915222168 3.59415674209594727 3.47649812698364258 -0.829537808895111084 -0.32949596643447876 0.450887411832809448
-1.50207781791687012 5.18876028060913086 5.49700021743774414 -0.430005371570587158 -0.280708074569702148 0.858078300952911377
-5.49700021743774414 3.13356924057006836 4.56283950805664062 -0.986754119396209717 -0.120363429188728333 0.108761250972747803
-1.7577056884765625 1.94813108444213867 2.98714208602905273 -0.0151343010365962982 -0.278496742248535156 -0.96031796932220459
-5.49700021743774414 2.12597322463989258 1.09044027328491211 -0.205889850854873657 -0.634914875030517578 -0.744642496109008789
-2.79664897918701172 2.23069858551025391 5.49700021743774414 -0.583773553371429443 -0.788030803203582764 0.195488825440406799
-3.26102924346923828 2.02834796905517578 0.00300000002607703209 0.167627543210983276 -0.342198461294174194 -0.924554646015167236
-4.71135807037353516 2.96751141548156738 5.49700021743774414 -0.541667938232421875 -0.193726539611816406 0.817964613437652588
-1.85907602310180664 1.62589848041534424 3.05364370346069336 0.06689433753490448 0.0208823475986719131 -0.997541546821594238
-2.8097236156463623 3.46609926223754883 3.30299234390258789 0.173249423503875732 -0.915033340454101562 -0.364278167486190796
-4.03793144226074219 2.88489818572998047 5.49700021743774414 -0.268368571996688843 -0.341289252042770386 0.900832951068878174
-3.4938511848449707 3.54976272583007812 5.49700021743774414 0.128112316131591797 0.171574026346206665 0.976805686950683594
-0.00299976160749793053 5.00799655914306641 1.39111423492431641 0.89161914587020874 -0.141921892762184143 -0.429969191551208496
-3.61153960227966309 4.39816808700561523 3.18291664123535156 -0.773356378078460693 -0.606392920017242432 -0.184952706098556519
-2.54128074645996094 5.49700021743774414 4.68885660171508789 0.471498489379882812 0.870007812976837158 0.144136905670166016
-2.71078968048095703 3.1802983283996582 0.751569628715515137 -0.663685858249664307 0.517373442649841309 -0.540227532386779785
-0.00300071528181433678 4.85953426361083984 2.49921011924743652 0.853872597217559814 0.33257940411567688 -0.400365233421325684
-3.35525751113891602 4.08915901184082031 5.49700021743774414 -0.746525228023529053 -0.381171971559524536 0.545351266860961914
-4.05736923217773438 5.08136749267578125 5.49700021743774414 -0.881275594234466553 -0.323711752891540527 0.344331204891204834
-3.21762800216674805 4.52036237716674805 0.892736971378326416 0.00930849649012088776 -0.832433760166168213 0.554046392440795898
-0.12753748893737793 5.44560480117797852 5.49700021743774414 -0.162714377045631409 -0.135865211486816406 0.977274119853973389
-5.49700021743774414 4.58007717132568359 3.41184067726135254 -0.757707357406616211 -0.0504585206508636475 0.650640785694122314
-5.49700021743774414 4.98713922500610352 2.30471158027648926 -0.941135942935943604 -0.21133694052696228 -0.263817757368087769
-5.49700021743774414 5.23590660095214844 2.93309497833251953 -0.915870785713195801 -0.193569779396057129 0.351726442575454712
-4.99874353408813477 1.32321405410766602 5.49700021743774414 -0.492737710475921631 -0.717909455299377441 0.49174731969833374
-5.49700021743774414 0.901723861694335938 2.43408727645874023 -0.555774986743927002 0.263716310262680054 0.78839576244354248
-1.66631972789764404 1.7828824520111084 3.02008247375488281 0.0227251499891281128 -0.280867934226989746 -0.959477365016937256
-2.97594809532165527 5.21375226974487305 5.49700021743774414 0.328747808933258057 0.786943495273590088 0.522153973579406738
-4.75107622146606445 5.41480445861816406 5.49700021743774414 -0.115602336823940277 -0.195093363523483276 0.973948001861572266
-5.02272939682006836 2.28191423416137695 5.49700021743774414 -0.610888123512268066 -0.450001418590545654 0.651394128799438477
-2.11000585556030273 1.0650477409362793 2.57496094703674316 0.40979340672492981 0.628997206687927246 -0.660629868507385254
-4.77277898788452148 5.34334754943847656 5.49700021743774414 0.272864669561386108 -0.780954480171203613 0.561831772327423096
-2.97986793518066406 4.04770708084106445 0.352599024772644043 -0.912993669509887695 0.28197905421257019 0.294839590787887573
-3.31792545318603516 5.49700021743774414 4.05320453643798828 0.149408489465713501 0.978305339813232422 -0.143512129783630371
-0.804720163345336914 5.06963443756103516 5.49700021743774414 -0.39948195219039917 -0.276737213134765625 0.873974084854125977
-3.70001721382141113 5.49700021743774414 4.01897192001342773 -0.131432086229324341 0.947493970394134521 0.291514694690704346
-1.04970717430114746 5.28187274932861328 5.49700021743774414 -0.114820525050163269 -0.126953288912773132 0.985240638256072998
-5.49700021743774414 1.83932256698608398 1.96130800247192383 -0.683470249176025391 0.597258985042572021 0.419702380895614624
-3.22773504257202148 4.5172276496887207 3.28040695190429688 0.0959129855036735535 -0.823483169078826904 0.559174537658691406
-2.66901159286499023 2.95670199394226074 1.55256223678588867 -0.10034170001745224 0.990591108798980713 -0.09306354820728302
-0.00300023844465613365 5.48258352279663086 0.668394088745117188 0.477095305919647217 -0.00268324813805520535 -0.878847479820251465
-5.49700021743774414 2.98730874061584473 5.01723623275756836 -0.891269683837890625 -0.154384851455688477 0.426384210586547852
-5.49700021743774414 1.95504474639892578 1.71853017807006836 -0.554419457912445068 -0.342185825109481812 -0.758635580539703369
-4.12560462951660156 5.49700021743774414 1.92957973480224609 -0.195258468389511108 0.563577234745025635 -0.802654862403869629
-3.7989654541015625 5.49700021743774414 2.77006411552429199 -0.173226296901702881 0.791947245597839355 -0.585501611232757568
-2.56439685821533203 2.19161653518676758 1.33665132522583008 0.872962415218353271 0.204130172729492188 0.443020910024642944
-5.49700021743774414 -0.833487272262573242 0.111957550048828125 -0.600164353847503662 -0.772954404354095459 0.205777198076248169
-0.00299976160749793053 4.55338335037231445 2.55129003524780273 0.843881845474243164 -0.220648139715194702 -0.489058136940002441
-0.00300023844465613365 4.59634685516357422 1.04974031448364258 0.835646450519561768 -0.325811684131622314 -0.442201077938079834
-4.07422637939453125 0.747395753860473633 5.49700021743774414 -0.102249979972839355 -0.894762933254241943 0.434677004814147949
-3.72574067115783691 2.62889480590820312 0.445534706115722656 -0.0111140096560120583 0.396212577819824219 0.918091535568237305
-0.739583015441894531 5.1100163459777832 5.49700021743774414 -0.0252093356102705002 -0.788006305694580078 0.615150868892669678
-3.95891952514648438 4.29040718078613281 0.471341371536254883 -0.876238703727722168 -0.442151129245758057 0.191593572497367859
-4.63121604919433594 5.25053501129150391 0.00300000002607703209 -0.54119563102722168 -0.0513564981520175934 -0.839326977729797363
-5.49700021743774414 1.06788504123687744 3.37725067138671875 -0.572753846645355225 -0.756559610366821289 -0.315548062324523926
-2.0521702766418457 1.1147606372833252 2.72273778915405273 0.3599415123462677 0.504379749298095703 -0.784884214401245117
-5.10464382171630859 5.37427043914794922 5.49700021743774414 -0.174954980611801147 -0.0949829444289207458 0.979984164237976074
-3.63964629173278809 3.22876358032226562 3.43472886085510254 -0.457632094621658325 0.798970043659210205 0.390153467655181885
-0.00300000002607703209 4.11310815811157227 2.02514076232910156 0.858462512493133545 -0.46205940842628479 0.222583144903182983
-5.49700021743774414 5.45607471466064453 5.40189123153686523 -0.997547626495361328 -0.0623458996415138245 0.0318066515028476715
-3.23107671737670898 5.20231342315673828 0.00300047686323523521 0.115827329456806183 -0.0675939992070198059 -0.990966737270355225
-1.73186981678009033 5.49700021743774414 3.32619667053222656 0.607119262218475342 0.794571876525878906 0.0078607192263007164
-1.74996280670166016 5.49700021743774414 0.524714469909667969 -0.12564358115196228 0.714163780212402344 0.6886100172996521
-0.00300000002607703209 2.5019996166229248 4.53626394271850586 0.293069034814834595 -0.952316880226135254 -0.084870949387550354
-3.75838041305541992 5.49700021743774414 4.5235753059387207 -0.0214006900787353516 0.997429847717285156 0.0683796405792236328
-1.69820833206176758 2.87820935249328613 0.00300000002607703209 0.0869058594107627869 -0.441677391529083252 -0.892954885959625244
-3.28254556655883789 5.41007852554321289 5.49700021743774414 -0.0999711230397224426 -0.0268302839249372482 0.994628548622131348
-1.16576647758483887 1.48090159893035889 5.49700021743774414 0.769320547580718994 -0.51403653621673584 0.379357814788818359
-5.49700069427490234 0.979278802871704102 4.1042628288269043 -0.627723336219787598 -0.777277708053588867 -0.0424593687057495117
-0.00300000002607703209 0.316205024719238281 5.06629085540771484 0.148658692836761475 -0.634320437908172607 0.758642315864562988
-2.02904129028320312 2.12048792839050293 2.84733915328979492 0.362769216299057007 -0.456798732280731201 -0.812239766120910645
-0.00300000002607703209 4.45614862442016602 4.44606494903564453 0.960279285907745361 0.271249175071716309 0.065481722354888916
-0.00300000002607703209 5.28563976287841797 2.05422878265380859 0.736836671829223633 -0.59741133451461792 -0.316498726606369019
-3.0229194164276123 5.40613222122192383 5.49700021743774414 0.703774094581604004 -0.108238823711872101 0.702129900455474854
-2.50180435180664062 1.75248885154724121 2.55163216590881348 0.801015853881835938 -0.177369952201843262 -0.571763515472412109
-2.45660090446472168 2.5528409481048584 0.266115367412567139 0.190279975533485413 -0.645229995250701904 0.739913344383239746
-5.49700069427490234 -0.662587642669677734 4.78830766677856445 -0.55842822790145874 -0.781630992889404297 0.277868568897247314
-3.63019323348999023 5.25030517578125 5.49700021743774414 -0.202575415372848511 0.681598007678985596 0.703126847743988037
-3.8236536979675293 5.49700021743774414 3.49173855781555176 -0.320300817489624023 0.944797217845916748 0.0690331831574440002
-3.40535354614257812 3.50924420356750488 3.54877901077270508 -0.55189216136932373 -0.709802448749542236 0.437716245651245117
-0.00300000002607703209 3.79796981811523438 5.2784881591796875 0.869423270225524902 -0.493525445461273193 -0.0231482349336147308
-1.93262887001037598 1.86208343505859375 3.01905441284179688 0.0571214854717254639 -0.281308412551879883 -0.957915782928466797
-3.29413056373596191 4.49663114547729492 2.19327807426452637 0.359475433826446533 -0.347099065780639648 -0.866198360919952393
-1.22332453727722168 3.76600503921508789 0.00300000002607703209 0.0976824387907981873 -0.312073200941085815 -0.945023000240325928
-0.00300000002607703209 4.08581066131591797 0.453998327255249023 0.678322494029998779 0.118677496910095215 -0.725116610527038574
-0.00300000002607703209 1.28994250297546387 1.8056328296661377 0.781786203384399414 -0.165833979845046997 -0.60109025239944458
-0.00300000002607703209 4.30938720703125 4.85977697372436523 0.856922328472137451 -0.47972676157951355 -0.188537523150444031
-3.18059825897216797 5.16424560546875 5.49700021743774414 -0.156191855669021606 -0.107037194073200226 0.98190993070602417
-3.61120343208312988 3.85447788238525391 4.27888059616088867 -0.897999107837677002 -0.433476358652114868 -0.0754705667495727539
-5.49700021743774414 2.19838905334472656 3.89423584938049316 -0.858607232570648193 -0.487019062042236328 -0.160018742084503174
-5.49700021743774414 -0.875837326049804688 3.63707971572875977 -0.276799589395523071 -0.924758315086364746 -0.261158943176269531
-5.49700021743774414 4.79410648345947266 3.53440523147583008 -0.642100811004638672 -0.520469307899475098 0.562866151332855225
-4.58987140655517578 5.49700021743774414 1.66282021999359131 -0.858919978141784668 0.218407496809959412 0.46320044994354248
-3.31414699554443359 4.49042177200317383 3.00860977172851562 -0.832445740699768066 -0.429636478424072266 -0.34992372989654541
-4.14017677307128906 2.68361997604370117 3.30299258232116699 -0.457845807075500488 -0.390166759490966797 -0.798841118812561035
-3.77645564079284668 2.98245573043823242 3.30299258232116699 -0.187293514609336853 0.0138756036758422852 -0.982205986976623535
-0.781945943832397461 5.49700021743774414 3.1694941520690918 0.762908995151519775 0.57500004768371582 -0.295541644096374512
-1.66870379447937012 1.88875043392181396 2.9923713207244873 0.0763743221759796143 -0.229630157351493835 -0.970276713371276855
-2.13285613059997559 2.10658502578735352 2.80747056007385254 0.296827822923660278 -0.440704822540283203 -0.847155570983886719
-0.00300000002607703209 1.37993359565734863 3.14355707168579102 0.842763662338256836 -0.473155885934829712 -0.256656646728515625
-2.5789191722869873 2.14295172691345215 0.0514157414436340332 0.686514735221862793 -0.716891229152679443 0.121509373188018799
-1.86805582046508789 1.55060768127441406 3.04448533058166504 0.217328473925590515 -0.0134572088718414307 -0.976005792617797852
-4.14670562744140625 5.13240861892700195 5.49700021743774414 -0.622712135314941406 -0.579722344875335693 0.525501251220703125
-2.96547365188598633 4.00130558013916016 2.49794960021972656 -0.706134498119354248 -0.694360613822937012 0.138698965311050415
-2.67050433158874512 1.83604848384857178 0.710643231868743896 0.660073339939117432 -0.734031200408935547 -0.159691482782363892
-5.49700021743774414 3.49201798439025879 3.56723260879516602 -0.897498548030853271 -0.429875403642654419 0.0985063314437866211
-3.95670986175537109 5.49700069427490234 4.29959011077880859 -0.601869046688079834 0.313295215368270874 0.734574556350708008
-2.15729427337646484 5.42526912689208984 5.49700021743774414 -0.712417364120483398 -0.128046274185180664 0.689975142478942871
-5.49700021743774414 1.34273982048034668 4.82771205902099609 -0.668896377086639404 -0.707541823387145996 0.22795259952545166
-3.67245674133300781 -0.400134414434432983 0.757088780403137207 0.995867133140563965 -0.0585435554385185242 0.0694356411695480347
-3.56725215911865234 3.08277988433837891 5.49700021743774414 0.13317638635635376 -0.208524256944656372 0.968907058238983154
-3.22017526626586914 5.49700021743774414 3.00307369232177734 0.102532148361206055 0.84620976448059082 -0.522892177104949951
-2.50145411491394043 1.82266080379486084 2.50154304504394531 0.803947687149047852 -0.137495264410972595 -0.57858729362487793
-1.64319133758544922 1.62133169174194336 3.02263402938842773 -0.0242797583341598511 -0.106210924685001373 -0.994047105312347412
-3.9486384391784668 4.51579856872558594 5.49700021743774414 -0.085878416895866394 0.688266932964324951 0.720356404781341553
-0.00300000002607703209 1.83206653594970703 0.287709712982177734 0.157682925462722778 -0.934873461723327637 0.318037241697311401
-4.32941341400146484 4.17547702789306641 2.02454519271850586 -0.675831854343414307 -0.619306743144989014 -0.399637877941131592
-0.00299976160749793053 5.1437530517578125 4.74150228500366211 0.879751384258270264 0.456453144550323486 0.132996559143066406
-3.05637311935424805 2.93137741088867188 5.49700069427490234 0.122937001287937164 -0.711123168468475342 0.692235767841339111
-2.13225746154785156 2.25066947937011719 2.58677148818969727 0.465841919183731079 -0.677389204502105713 -0.569328725337982178
-5.49700021743774414 -0.689049720764160156 3.55710697174072266 -0.499522268772125244 -0.857521235942840576 -0.123023539781570435
-0.00300023844465613365 5.07605457305908203 3.34952807426452637 0.903526723384857178 0.428366363048553467 0.0119059309363365173
-5.49700021743774414 5.09711074829101562 3.69485616683959961 -0.35011860728263855 -0.936435997486114502 0.0224630683660507202
-2.35880804061889648 5.49700021743774414 2.16339111328125 0.335038423538208008 0.682865917682647705 -0.64918673038482666
-1.50952959060668945 5.31529617309570312 5.49700021743774414 0.630891144275665283 -0.13754764199256897 0.763581693172454834
-5.49700021743774414 2.53266191482543945 3.24463200569152832 -0.778694570064544678 -0.301294147968292236 -0.550324082374572754
-0.00300000002607703209 5.24618244171142578 3.26712942123413086 0.988216936588287354 -0.152724489569664001 0.0101230824366211891
-2.97897124290466309 4.05821514129638672 5.49700021743774414 -0.477780759334564209 -0.739802777767181396 0.473727136850357056
-2.24396061897277832 1.35935795307159424 2.83448290824890137 0.448473185300827026 0.21715882420539856 -0.867014288902282715
-3.87060117721557617 5.47569656372070312 5.49700021743774414 -0.170367658138275146 -0.122007474303245544 0.977798044681549072
-2.8939354419708252 3.34254240989685059 3.30299258232116699 0.529345929622650146 -0.0355970561504364014 -0.847658991813659668
-1.96142876148223877 1.1588141918182373 2.81646490097045898 0.177221059799194336 0.406617164611816406 -0.896245121955871582
-2.49184274673461914 1.57881593704223633 2.58350610733032227 0.77129971981048584 0.0150897353887557983 -0.636293172836303711
-5.49700021743774414 -0.848951101303100586 0.00317788124084472656 -0.776639878749847412 0.541479766368865967 0.321916431188583374
-0.00300023844465613365 1.86880874633789062 3.92073702812194824 0.855775356292724609 -0.483150959014892578 0.184969305992126465
-0.00300000002607703209 3.42872834205627441 4.8316798210144043 0.488393396139144897 -0.872488975524902344 0.015325482003390789
-0.00300000002607703209 4.04925346374511719 3.86337566375732422 0.172831982374191284 -0.97170102596282959 -0.161016359925270081
-5.49700021743774414 2.91017436981201172 5.03153228759765625 -0.900902390480041504 -0.242951259016990662 0.359652101993560791
-3.37045836448669434 3.37169027328491211 3.64105796813964844 -0.117865465581417084 0.526125550270080566 0.842199265956878662
-3.14629054069519043 4.13183116912841797 3.30299210548400879 0.22083204984664917 0.634090781211853027 -0.741054713726043701
-3.40206599235534668 5.39656877517700195 5.49700021743774414 0.583029091358184814 -0.199765473604202271 0.787509262561798096
-0.00300000002607703209 -0.85009002685546875 2.2810516357421875 0.718540072441101074 -0.45948714017868042 0.522084057331085205
-5.49700021743774414 0.617150783538818359 2.9612889289855957 -0.517873406410217285 -0.758432686328887939 -0.39571070671081543
-0.00300000002607703209 5.26513481140136719 5.30705881118774414 0.449451059103012085 -0.178549587726593018 0.875279247760772705
-1.45781552791595459 5.49700021743774414 5.06803274154663086 0.604430437088012695 0.480170637369155884 0.635688662528991699
-1.52965664863586426 1.94276988506317139 2.91122198104858398 -0.169081121683120728 -0.321736723184585571 -0.931609988212585449
-3.6141362190246582 5.13266515731811523 5.49700021743774414 0.0463195443153381348 0.838011860847473145 0.543682336807250977
-2.1837623119354248 3.41295003890991211 0.00300000002607703209 0.278663337230682373 -0.343451499938964844 -0.896876692771911621
-1.19576907157897949 1.08099579811096191 5.49700021743774414 0.698484182357788086 -0.623473763465881348 0.351283848285675049
-2.38009881973266602 1.24553859233856201 2.47590279579162598 0.553059756755828857 0.538299977779388428 0.635891556739807129
-3.09297275543212891 0.0280816555023193359 5.49700021743774414 0.276878416538238525 -0.73215717077255249 0.622321605682373047
-0.00299976160749793053 2.55384492874145508 4.97548961639404297 0.946748077869415283 -0.227555170655250549 0.227786123752593994
-5.49700021743774414 4.45682477951049805 4.5576176643371582 -0.874911665916442871 0.480356693267822266 0.0615379810333251953
-4.30306148529052734 4.18365144729614258 2.39054775238037109 -0.605234026908874512 -0.791081905364990234 -0.0887760892510414124
-2.37650227546691895 5.22945833206176758 5.49700021743774414 -0.623500525951385498 -0.638524413108825684 0.451146990060806274
-1.98971652984619141 2.06173038482666016 2.9086458683013916 0.330541700124740601 -0.417758524417877197 -0.846297860145568848
-2.182525634765625 1.9259943962097168 2.90472126007080078 0.418325632810592651 -0.227295845746994019 -0.879397690296173096
-4.13296747207641602 3.8976435661315918 4.25037288665771484 0.374237090349197388 -0.920654058456420898 -0.111097656190395355
-0.00300000002607703209 -0.273262262344360352 4.05816078186035156 0.554721653461456299 0.0788209661841392517 0.828294098377227783
-4.50188302993774414 4.12197542190551758 2.7315669059753418 -0.347926169633865356 -0.763083875179290771 -0.544656217098236084
-1.83191275596618652 2.54868388175964355 0.0787144303321838379 -0.692676723003387451 -0.71304851770401001 0.108446843922138214
-4.81809616088867188 4.01577997207641602 5.49700021743774414 -0.168973937630653381 -0.822430789470672607 0.54319000244140625
-2.9826047420501709 4.90883445739746094 5.49700021743774414 -0.0809043645858764648 -0.322554171085357666 0.943087100982666016
-3.2856905460357666 3.58597350120544434 3.30299234390258789 0.298640251159667969 -0.750943958759307861 -0.588979721069335938
-3.53644204139709473 3.54756712913513184 3.41616058349609375 -0.781810581684112549 -0.248769760131835938 0.571739315986633301
-1.52250015735626221 4.58953332901000977 0.00300023844465613365 0.527720630168914795 -0.327821552753448486 -0.783609569072723389
-3.76787257194519043 5.46404743194580078 5.49700021743774414 0.289168775081634521 -0.39594346284866333 0.87155616283416748
-0.00300000002607703209 3.19573545455932617 2.67770791053771973 0.350105732679367065 -0.833588480949401855 0.427265942096710205
-5.49700021743774414 5.42411136627197266 3.94117999076843262 -0.949357569217681885 -0.096892915666103363 0.298884540796279907
-0.00300047686323523521 4.95165061950683594 4.02760791778564453 0.888499021530151367 0.413679331541061401 0.198592320084571838
-5.49700021743774414 0.976559162139892578 2.69104862213134766 -0.560212254524230957 -0.671803772449493408 -0.484604865312576294
-5.49699974060058594 5.18538665771484375 4.80945873260498047 -0.994561851024627686 -0.0747930333018302917 -0.0724756047129631042
-3.72959566116333008 4.36154603958129883 2.59197616577148438 -0.225937753915786743 -0.952508389949798584 0.204156488180160522
-0.00299976160749793053 4.45826148986816406 1.98872232437133789 0.785115361213684082 -0.37676769495010376 0.491568893194198608
-2.42442154884338379 1.61502730846405029 1.98457670211791992 0.471397727727890015 -0.512518703937530518 0.717710793018341064
-2.28946042060852051 1.69787371158599854 2.88881278038024902 0.559985518455505371 -0.193723216652870178 -0.805535614490509033
-0.00300023844465613365 2.88794803619384766 4.22022151947021484 0.648974478244781494 0.158038735389709473 0.744214951992034912
-0.0650179386138916016 4.93778514862060547 0.00299976160749793053 0.0805818140506744385 -0.173540070652961731 -0.981524527072906494
-2.13637375831604004 1.80889928340911865 2.9718017578125 0.228436127305030823 -0.139041826128959656 -0.963578939437866211
-1.69171977043151855 3.9459991455078125 0.00300000002607703209 -0.480910658836364746 -0.666327834129333496 -0.569852769374847412
-4.1446533203125 3.08785080909729004 3.57970166206359863 -0.0491591840982437134 0.515585422515869141 0.855426788330078125
-0.00300000002607703209 4.11349725723266602 4.61448764801025391 0.30537906289100647 -0.391899436712265015 0.867847025394439697
-0.67150425910949707 1.42155170440673828 5.49700021743774414 0.773125231266021729 -0.513332128524780273 0.372515439987182617
-3.43247652053833008 2.21547102928161621 5.49700021743774414 0.186583340167999268 -0.646860361099243164 0.739431023597717285
-3.72427845001220703 1.4512174129486084 5.49700021743774414 -0.0145182013511657715 -0.794922888278961182 0.606537044048309326
-5.49700021743774414 2.99207925796508789 3.97487831115722656 -0.780909240245819092 -0.552454829216003418 -0.291503697633743286
-0.0765709877014160156 4.02549457550048828 5.49700021743774414 0.216778174042701721 -0.644195675849914551 0.733497858047485352
-3.73154377937316895 5.49700021743774414 4.25035715103149414 -0.0539139211177825928 0.996955037117004395 -0.0563364624977111816
-1.93500590324401855 0.85128706693649292 0.613307178020477295 0.605598568916320801 0.69867861270904541 0.380918145179748535
-0.00300000002607703209 0.113453388214111328 2.24416375160217285 0.566272914409637451 0.35241091251373291 0.745078206062316895
-0.37863922119140625 3.64388871192932129 5.49700021743774414 0.690568447113037109 -0.433585375547409058 0.578894555568695068
-1.97571635246276855 2.17111778259277344 2.8130335807800293 0.251800209283828735 -0.527153730392456055 -0.811606884002685547
-1.61080062389373779 1.43336367607116699 2.97026658058166504 -0.0975134074687957764 0.0751831680536270142 -0.99239039421081543
-3.91078996658325195 5.31489276885986328 5.49700021743774414 -0.458495199680328369 -0.717055678367614746 0.524988830089569092
-5.49700021743774414 -0.699430704116821289 0.461983680725097656 -0.583374381065368652 -0.67689591646194458 0.448872178792953491
-5.49700021743774414 4.64738988876342773 4.69792652130126953 -0.781074941158294678 -0.388916999101638794 0.488534033298492432
-2.0103144645690918 2.59065556526184082 1.65299618244171143 0.155009672045707703 0.377654671669006348 -0.912879467010498047
-2.28602886199951172 0.839589118957519531 5.49700021743774414 0.423365324735641479 -0.00626805517822504044 0.905937373638153076
-5.49700021743774414 2.7190558910369873 4.34037351608276367 -0.955557405948638916 -0.294803738594055176 -0.000960886478424072266
-0.287095308303833008 3.46512413024902344 5.49700021743774414 0.648440837860107422 -0.583415508270263672 0.489030450582504272
-2.12688827514648438 5.49700021743774414 3.46656703948974609 0.579765439033508301 0.808594286441802979 0.100236490368843079
-5.49700021743774414 1.99820446968078613 5.32299232482910156 -0.696531057357788086 -0.548401415348052979 0.462710380554199219
-5.49700021743774414 1.3456956148147583 0.817296504974365234 -0.757441043853759766 -0.334878355264663696 0.560481488704681396
-5.49700021743774414 1.45809757709503174 2.29212236404418945 -0.593534648418426514 -0.529309511184692383 -0.606257379055023193
-5.49700021743774414 5.05710792541503906 4.25738906860351562 -0.593322038650512695 -0.0488398335874080658 0.803482174873352051
-0.324070453643798828 5.49700021743774414 1.37192761898040771 -0.0247065294533967972 0.429194092750549316 0.902874290943145752
-1.01346385478973389 5.49700021743774414 0.148917675018310547 0.261497437953948975 0.954475998878479004 0.143508315086364746
-0.00299976160749793053 4.65301036834716797 4.76814699172973633 0.903330206871032715 -0.39277958869934082 0.172391265630722046
-3.01482391357421875 5.49700021743774414 4.04274845123291016 0.244835138320922852 0.966472625732421875 -0.0773726105690002441
-3.19784879684448242 4.52649879455566406 2.98356175422668457 -0.911163985729217529 -0.400437057018280029 -0.0971101820468902588
-5.49700021743774414 3.11092805862426758 3.98011302947998047 -0.961937844753265381 -0.105474755167961121 -0.252092421054840088
-5.49700021743774414 0.572634458541870117 2.79849386215209961 -0.65925973653793335 -0.749245882034301758 -0.0633033588528633118
-4.48747014999389648 -0.171622425317764282 0.74832528829574585 0.672309279441833496 0.139927566051483154 -0.726925373077392578
-5.49700021743774414 3.75941133499145508 5.32250404357910156 -0.856495916843414307 0.190889358520507812 0.479558110237121582
-1.80669975280761719 2.08015131950378418 2.91328763961791992 0.0256114918738603592 -0.482654690742492676 -0.875436186790466309
-0.276890993118286133 4.21194171905517578 5.49700021743774414 0.180800393223762512 -0.206225037574768066 0.961656093597412109
-3.56168842315673828 5.49700021743774414 4.16033363342285156 -0.252050429582595825 0.907530009746551514 0.335946172475814819
-3.51427078247070312 3.36078667640686035 3.45732259750366211 -0.404639363288879395 0.699945271015167236 0.588509678840637207
-1.97749781608581543 2.77756524085998535 5.49700021743774414 0.273858249187469482 0.47802463173866272 0.834562242031097412
-5.49700021743774414 3.19982361793518066 2.40529298782348633 -0.69665980339050293 0.119608879089355469 -0.707360446453094482
-0.00300000002607703209 -0.575860977172851562 3.03866219520568848 0.666858851909637451 -0.743844151496887207 0.044667661190032959
-3.52260637283325195 5.49700021743774414 4.90885210037231445 0.0667010843753814697 0.961101531982421875 0.268020093441009521
-4.15612220764160156 3.79871344566345215 4.32047748565673828 0.510036647319793701 -0.828024506568908691 -0.232890546321868896
-3.89343357086181641 3.03425264358520508 3.30299258232116699 -0.371045589447021484 0.125473961234092712 -0.920098602771759033
-0.0847561359405517578 5.49700021743774414 0.00301671028137207031 -0.887307882308959961 0.438285470008850098 0.143494024872779846
-2.76503753662109375 1.51926636695861816 0.458269417285919189 0.976971685886383057 0.0371386557817459106 0.210111856460571289
-5.49700021743774414 4.99788761138916016 2.72768068313598633 -0.425799429416656494 -0.276761472225189209 -0.861451089382171631
-0.00300000002607703209 1.05476808547973633 0.0001125335693359375 0.333545982837677002 -0.831561803817749023 -0.444130629301071167
-2.70791959762573242 2.75552678108215332 5.49700021743774414 0.443797171115875244 -0.615029573440551758 0.651753544807434082
-5.49700021743774414 3.4381413459777832 4.99415302276611328 -0.902999520301818848 0.114132821559906006 0.414204657077789307
-5.49699974060058594 1.60092997550964355 4.64886951446533203 -0.782171785831451416 -0.469094842672348022 0.410069912672042847
-3.40171599388122559 3.23282289505004883 3.70360445976257324 -0.496849566698074341 0.357404023408889771 0.790824174880981445
-4.13078022003173828 0.412459611892700195 5.49700021743774414 -0.194677963852882385 -0.751822233200073242 0.62997126579284668
-3.1366569995880127 1.30048942565917969 5.49700021743774414 -0.487073302268981934 -0.809565246105194092 0.327664047479629517
-0.00300000002607703209 4.87485980987548828 3.63087224960327148 0.859598517417907715 -0.43746301531791687 -0.264038801193237305
-3.51213645935058594 3.2024681568145752 3.30299258232116699 -0.111702859401702881 0.0502738356590270996 -0.992469191551208496
-2.19542527198791504 2.25086259841918945 2.25202655792236328 0.762999951839447021 -0.298441171646118164 -0.573379397392272949
-4.03843069076538086 3.97872257232666016 4.20390748977661133 0.558631718158721924 -0.816795647144317627 -0.144136935472488403
-2.3834991455078125 1.50666582584381104 2.76230406761169434 0.629500269889831543 0.089314877986907959 -0.771849870681762695
-3.4086766242980957 3.92755627632141113 3.30299234390258789 -0.0360412150621414185 -0.769993960857391357 -0.637032449245452881
-2.33574485778808594 2.04791665077209473 2.0578312873840332 0.47588619589805603 -0.000920940481591969728 0.879506409168243408
-0.00300000002607703209 2.92663288116455078 1.40250492095947266 0.785323739051818848 -0.0993383824825286865 -0.611063599586486816
-1.41991186141967773 2.4257357120513916 0.198718845844268799 0.390198826789855957 -0.913524389266967773 0.114969708025455475
-2.43384671211242676 1.99673724174499512 2.49868440628051758 0.728648185729980469 -0.357028663158416748 -0.584467649459838867
-4.00671529769897461 3.09856748580932617 3.30299234390258789 -0.188492447137832642 0.321253806352615356 -0.928044497966766357
-4.56107568740844727 2.52906417846679688 5.49700021743774414 -0.502465248107910156 -0.15148751437664032 0.851222753524780273
-5.49700021743774414 4.43851709365844727 2.30922985076904297 -0.900257229804992676 -0.394212245941162109 -0.184752866625785828
-2.30622768402099609 1.38989067077636719 1.65299606323242188 0.410807788372039795 -0.599613189697265625 -0.68680495023727417
-3.65771675109863281 3.34201908111572266 5.49700021743774414 -0.0345547199249267578 -0.0221695005893707275 0.999156713485717773
-5.49700021743774414 3.59495639801025391 5.02049160003662109 -0.670223593711853027 -0.732525527477264404 -0.119191758334636688
-5.19871759414672852 3.71510720252990723 5.49700021743774414 -0.761708378791809082 0.212606489658355713 0.612044572830200195
-3.95601582527160645 0.943164348602294922 5.49700021743774414 -0.215533122420310974 -0.637381374835968018 0.739790797233581543
-0.00300000002607703209 0.194649934768676758 2.39155888557434082 0.443479388952255249 0.382285058498382568 0.8106689453125
-0.00300000002607703209 5.25802469253540039 2.96283841133117676 0.0981710776686668396 -0.125306472182273865 0.987249076366424561
-0.00300000002607703209 2.30187225341796875 1.91116428375244141 0.840910553932189941 -0.200368225574493408 -0.50271451473236084
-3.38090109825134277 5.49700021743774414 0.974050045013427734 -0.300091594457626343 0.9123992919921875 0.278338968753814697
-1.84871995449066162 2.09833788871765137 2.9002690315246582 0.164501428604125977 -0.461798429489135742 -0.871597111225128174
-2.8599247932434082 3.66105484962463379 2.60578346252441406 -0.441513270139694214 -0.454686194658279419 0.773515701293945312
-5.49700021743774414 -0.13958287239074707 1.57426929473876953 -0.888189733028411865 -0.22909778356552124 0.398287802934646606
-5.49700021743774414 3.23803186416625977 4.38547706604003906 -0.999224305152893066 0.012628704309463501 0.0372993946075439453
-5.49700021743774414 4.76318264007568359 3.34987282752990723 -0.864615976810455322 -0.349456876516342163 -0.360997289419174194
-2.25192046165466309 4.92317390441894531 5.49700021743774414 0.389791578054428101 0.448839962482452393 0.804117679595947266
-4.49672746658325195 3.69957447052001953 5.49700021743774414 -0.451460123062133789 0.260078936815261841 0.853547215461730957
-1.67335450649261475 1.95245575904846191 2.96721506118774414 -0.0448748320341110229 -0.392373353242874146 -0.918710708618164062
-2.99439096450805664 5.49700021743774414 5.19535064697265625 0.00519228912889957428 0.548435688018798828 0.836176633834838867
-5.49700021743774414 4.92764425277709961 3.88305807113647461 -0.644356369972229004 0.724342882633209229 -0.245218813419342041
-2.9780280590057373 2.86084222793579102 0.0720590353012084961 0.250600218772888184 0.966702282428741455 0.0518287383019924164
-5.49700021743774414 5.2442936897277832 3.87404584884643555 -0.862327873706817627 -0.0850274637341499329 0.499160259962081909
-0.00300000002607703209 -0.967761039733886719 2.9883880615234375 0.184503659605979919 -0.976748406887054443 -0.109183058142662048
-2.72417187690734863 5.49700021743774414 0.824910640716552734 -0.401570260524749756 0.624575316905975342 0.6698111891746521
-0.447501659393310547 3.76066207885742188 0.00300000002607703209 0.0991054251790046692 -0.363970458507537842 -0.926122903823852539
-3.51655364036560059 0.452046424150466919 0.877092361450195312 0.916551828384399414 -0.0379550307989120483 0.398110777139663696
-5.49700021743774414 4.50013637542724609 2.75079917907714844 -0.899000108242034912 -0.308264434337615967 -0.31108170747756958
-0.1699676513671875 5.49700021743774414 1.58839595317840576 0.159476801753044128 0.428055942058563232 0.889570236206054688
-0.00299976160749793053 2.7046661376953125 4.27523899078369141 0.616524457931518555 -0.784025192260742188 -0.0721252709627151489
-5.49700021743774414 1.98213720321655273 4.17562770843505859 -0.492476284503936768 -0.859647870063781738 0.13591410219669342
-2.2783660888671875 0.128098011016845703 5.49700021743774414 0.393598675727844238 -0.845629215240478516 0.360542654991149902
-1.55987823009490967 5.30221319198608398 0.00300000002607703209 -0.113327793776988983 -0.613452792167663574 -0.781557738780975342
-1.9621577262878418 3.66420483589172363 0.00300023844465613365 0.322996824979782104 0.170155987143516541 -0.930978000164031982
-2.07876896858215332 2.83954715728759766 5.49700021743774414 -0.241230681538581848 -0.639534413814544678 0.72993391752243042
