ply
format ascii 1.0
element vertex 379
property float x
property float y
property float z
property float nx
property float ny
property float nz
end_header
-1.72027385234832764 2.31117439270019531 2.57169628143310547 -0.156045824289321899 -0.91510164737701416 -0.371804594993591309
-1.99390828609466553 2.12725543975830078 1.86355483531951904 0.204849869012832642 -0.581740200519561768 0.787156164646148682
-2.25110888481140137 1.61708080768585205 2.91823816299438477 0.569288253784179688 0.0704376399517059326 -0.819115042686462402
-2.42482686042785645 1.30261623859405518 2.45051050186157227 0.837118387222290039 0.538706362247467041 -0.0950171947479248047
-1.73100090026855469 1.39329326152801514 2.98777055740356445 -0.163425832986831665 0.364161372184753418 -0.916885197162628174
-2.33286452293395996 2.27446842193603516 1.65299630165100098 0.25957074761390686 -0.431341499090194702 -0.864041447639465332
-1.61763346195220947 1.95200955867767334 2.94869470596313477 -0.321609735488891602 -0.424638271331787109 -0.846315264701843262
-1.68265795707702637 2.33035087585449219 2.45483303070068359 -0.123532094061374664 -0.732570767402648926 -0.669387698173522949
-1.19054746627807617 5.49700021743774414 3.0830376148223877 -0.444792509078979492 0.86230391263961792 -0.242056995630264282
-1.30840694904327393 2.04903769493103027 2.56811380386352539 -0.624575436115264893 -0.549405515193939209 -0.555030763149261475
-1.92693650722503662 2.29518628120422363 2.63151168823242188 0.130820214748382568 -0.90126645565032959 -0.413043379783630371
-0.00300000002607703209 3.44270849227905273 3.40244269371032715 0.71054685115814209 0.65252995491027832 0.263302326202392578
-1.99651575088500977 -0.785857200622558594 0.00299976160749793053 0.380494773387908936 -0.64739692211151123 -0.660379409790039062
-2.39141201972961426 1.58339548110961914 1.94175910949707031 0.77680051326751709 0.127560019493103027 0.616692304611206055
-1.63554954528808594 1.09735620021820068 2.69472265243530273 -0.321729421615600586 0.804309606552124023 -0.499576181173324585
-2.22919559478759766 1.19961333274841309 2.6955864429473877 0.460007041692733765 0.385970771312713623 -0.799637436866760254
-1.46696126461029053 2.14752078056335449 2.68106412887573242 -0.469007611274719238 -0.701871991157531738 -0.536104083061218262
-2.02637791633605957 2.2911219596862793 2.58890366554260254 0.230679512023925781 -0.923820137977600098 -0.305521517992019653
-1.31871378421783447 1.89179825782775879 2.74875187873840332 -0.736039519309997559 -0.458080053329467773 -0.498405992984771729
-2.26642441749572754 5.49700021743774414 5.20761966705322266 -0.397487461566925049 0.767633497714996338 0.50273507833480835
-1.72727906703948975 1.75373268127441406 1.65299618244171143 -0.879174768924713135 0.318618953227996826 -0.354307383298873901
-3.29737377166748047 3.07687664031982422 5.49700021743774414 -0.390524327754974365 0.382342994213104248 0.837439477443695068
-1.82393920421600342 1.73745560646057129 3.0505836009979248 -0.0237181000411510468 -0.113258443772792816 -0.993282437324523926
-2.52387046813964844 1.57702541351318359 2.27329063415527344 0.956473588943481445 -0.0343425348401069641 -0.289791285991668701
-0.266706943511962891 1.02392578125 5.49700021743774414 -0.129537567496299744 -0.852642416954040527 0.506182730197906494
-1.33972656726837158 1.83739590644836426 2.80148696899414062 -0.733352422714233398 -0.243772685527801514 -0.634640932083129883
-2.08268952369689941 2.16005373001098633 1.93648374080657959 0.625355839729309082 -0.644501805305480957 0.439940333366394043
-2.12374997138977051 1.12338340282440186 2.685638427734375 0.405999213457107544 0.790401101112365723 -0.458727389574050903
-2.17684674263000488 1.50140166282653809 2.94497585296630859 0.481205463409423828 0.233881935477256775 -0.844831705093383789
-1.81425833702087402 0.666644573211669922 5.49700021743774414 -0.175321072340011597 -0.937691450119018555 0.29999542236328125
-3.30974960327148438 5.49700021743774414 1.76334381103515625 -0.351704001426696777 0.92394721508026123 -0.150421738624572754
-1.69710433483123779 1.56212890148162842 3.03034043312072754 -0.0971908420324325562 0.0536645539104938507 -0.993817925453186035
-5.49700021743774414 2.17772388458251953 3.79893827438354492 -0.952663302421569824 0.1996450275182724 -0.229291349649429321
-1.52557981014251709 1.39437949657440186 2.91227030754089355 -0.562031745910644531 0.13639579713344574 -0.815791964530944824
-2.14576077461242676 2.00213289260864258 2.88402009010314941 0.424168646335601807 -0.496213972568511963 -0.757530748844146729
-2.39557003974914551 1.7046431303024292 2.77525734901428223 0.783080995082855225 -0.0576314479112625122 -0.61924368143081665
-2.19507503509521484 1.39969086647033691 2.89452910423278809 0.517145037651062012 0.394705384969711304 -0.759452939033508301
-1.85814845561981201 2.33109116554260254 2.5431516170501709 0.0809660404920578003 -0.958224654197692871 -0.274317145347595215
-1.97000992298126221 1.21354937553405762 2.86918735504150391 0.270616680383682251 0.479463756084442139 -0.834794104099273682
-1.61566829681396484 1.1637721061706543 2.77821993827819824 -0.315400302410125732 0.716832518577575684 -0.621831059455871582
-2.16474604606628418 2.27285552024841309 2.43226504325866699 0.432561397552490234 -0.892034411430358887 -0.131016373634338379
-2.25704765319824219 1.1910775899887085 2.07023239135742188 0.717057764530181885 0.697013795375823975 -8.58008861541748047e-05
-2.24418997764587402 1.76738286018371582 1.80056047439575195 0.55846637487411499 -0.365505427122116089 0.744661808013916016
-1.29403352737426758 1.66683900356292725 2.77976179122924805 -0.784488379955291748 0.000533552840352058411 -0.620143353939056396
-5.49700021743774414 5.42432689666748047 3.41220402717590332 -0.848065197467803955 0.525702893733978271 -0.0664970427751541138
-2.05376696586608887 1.49569618701934814 2.99870681762695312 0.320112764835357666 0.246477723121643066 -0.914754986763000488
-1.4605557918548584 1.78173971176147461 2.92506647109985352 -0.505714774131774902 -0.198346167802810669 -0.839589953422546387
-2.36540603637695312 1.98197031021118164 2.68499064445495605 0.75043940544128418 -0.479400187730789185 -0.454990297555923462
-0.205855846405029297 5.49700021743774414 5.27845621109008789 -0.272990882396697998 0.912737846374511719 -0.303949981927871704
-0.0275583267211914062 1.98305964469909668 0.00299976160749793053 -0.00667082285508513451 -0.201585367321968079 -0.979448258876800537
-1.20682811737060547 1.39790892601013184 2.33966755867004395 -0.91315382719039917 0.406658172607421875 0.027915220707654953
-2.40462541580200195 1.93983983993530273 2.65645122528076172 0.794318497180938721 -0.402285277843475342 -0.455219507217407227
-1.17973124980926514 1.85467064380645752 2.33616757392883301 -0.965002179145812988 -0.261819958686828613 0.0148712405934929848
-1.57980179786682129 2.26838541030883789 2.14743185043334961 -0.40004497766494751 -0.869219541549682617 0.29055359959602356
-1.54611849784851074 1.89845585823059082 2.94044947624206543 -0.415310800075531006 -0.332024276256561279 -0.846922039985656738
-1.17229294776916504 1.82106947898864746 2.40487766265869141 -0.971559762954711914 -0.22076435387134552 -0.0856428444385528564
-2.1844642162322998 2.10171365737915039 2.77454686164855957 0.483204007148742676 -0.61771315336227417 -0.620438814163208008
-3.69685149192810059 1.354888916015625 0.00300000002607703209 -0.808869242668151855 0.511667191982269287 -0.289702028036117554
-0.00299976160749793053 3.44432163238525391 2.46273589134216309 0.819267630577087402 -0.572511494159698486 0.03211178258061409
-2.06739139556884766 2.30318427085876465 2.21398138999938965 0.262659847736358643 -0.96405482292175293 -0.0401014611124992371
-2.36486029624938965 2.11705279350280762 2.4006044864654541 0.752169370651245117 -0.653496265411376953 -0.0847579985857009888
-1.2873539924621582 1.34949815273284912 2.62120580673217773 -0.824720561504364014 0.453924387693405151 -0.337325870990753174
-2.12183022499084473 1.88790512084960938 1.76207125186920166 0.438517540693283081 -0.351733565330505371 0.827034354209899902
-2.14056277275085449 1.81351268291473389 2.96848487854003906 0.437721967697143555 -0.221907913684844971 -0.871295809745788574
-2.05560207366943359 1.00845921039581299 2.39600467681884766 0.361368954181671143 0.847873032093048096 -0.387974143028259277
-2.51512265205383301 1.52947568893432617 2.45146059989929199 0.967667222023010254 0.214074656367301941 -0.13338722288608551
-2.45277309417724609 1.84109222888946533 2.63520193099975586 0.878371596336364746 -0.243827745318412781 -0.411109864711761475
-1.75181913375854492 1.2344973087310791 2.89441323280334473 -0.140801757574081421 0.630773186683654785 -0.763085901737213135
-2.36766386032104492 3.19340419769287109 5.49700021743774414 -0.14770844578742981 0.422773540019989014 0.89411693811416626
-2.09445738792419434 1.28862488269805908 2.88412737846374512 0.351749002933502197 0.545119285583496094 -0.760997772216796875
-2.00548267364501953 1.04198777675628662 2.1056973934173584 0.257573753595352173 0.88875889778137207 0.379161417484283447
-1.78972542285919189 2.24029898643493652 2.74022507667541504 -0.0457653217017650604 -0.86349189281463623 -0.502282023429870605
-2.21412229537963867 1.69948208332061768 2.94452118873596191 0.534585237503051758 -0.0407134518027305603 -0.844133317470550537
-1.78973221778869629 1.28603112697601318 1.77911734580993652 -0.152062207460403442 0.654724776744842529 0.740413784980773926
-3.70439958572387695 0.454934656620025635 0.748325169086456299 -0.447195440530776978 -0.0531250648200511932 -0.892857193946838379
-1.87997078895568848 1.22276461124420166 2.8913731575012207 0.0528432838618755341 0.646078586578369141 -0.761439502239227295
-1.95236814022064209 2.16387820243835449 1.88921010494232178 0.154890164732933044 -0.709487199783325195 0.687485992908477783
-4.31728792190551758 4.17923831939697266 1.78410422801971436 0.316381216049194336 -0.866357862949371338 0.386428534984588623
-1.76790213584899902 1.78928375244140625 3.03889226913452148 -0.129233717918395996 -0.194884851574897766 -0.972274959087371826
-2.81290030479431152 5.49700021743774414 3.41219949722290039 -0.459139645099639893 0.703042745590209961 -0.543066918849945068
-5.49700069427490234 0.357891082763671875 3.51509928703308105 -0.653192818164825439 0.133190527558326721 0.745385408401489258
-2.48899316787719727 1.78518187999725342 2.57599329948425293 0.932211160659790039 -0.165993019938468933 -0.321603357791900635
-2.20931601524353027 2.14841985702514648 2.69281244277954102 0.536626994609832764 -0.681135177612304688 -0.498082607984542847
-1.79804980754852295 2.26127409934997559 2.70699453353881836 -0.0417545400559902191 -0.865626990795135498 -0.498945415019989014
-1.750404953956604 2.3477473258972168 2.30477070808410645 -0.170263558626174927 -0.976678013801574707 0.130806684494018555
-0.696376800537109375 2.54152631759643555 0.00299976160749793053 0.370546907186508179 0.101367257535457611 -0.923265755176544189
-1.71722793579101562 1.06688380241394043 2.68225765228271484 -0.209795445203781128 0.863584280014038086 -0.458484679460525513
-2.5284121036529541 1.75573337078094482 2.33418011665344238 0.89684063196182251 -0.109793543815612793 -0.42851179838180542
-0.198333740234375 4.56368923187255859 0.00300000002607703209 -0.0402379967272281647 -0.0156234987080097198 -0.999067962169647217
-1.93502712249755859 1.49880588054656982 3.02736616134643555 0.142106220126152039 0.232560247182846069 -0.962144255638122559
-5.49700021743774414 0.878379344940185547 3.75007843971252441 -0.298607796430587769 0.559668958187103271 -0.773048520088195801
-1.54891777038574219 1.33515751361846924 2.89255309104919434 -0.434491574764251709 0.500810742378234863 -0.748602509498596191
-5.49700021743774414 0.337344169616699219 2.65301012992858887 -0.6655922532081604 -0.741101086139678955 -0.088069133460521698
-2.41396069526672363 2.00727701187133789 2.54807233810424805 0.737869143486022949 -0.597158074378967285 -0.314565360546112061
-1.79804575443267822 5.36669492721557617 0.00300000002607703209 -0.197478756308555603 -0.0263961739838123322 -0.979951739311218262
-5.49700021743774414 4.90618228912353516 3.90962409973144531 -0.519699811935424805 -0.243181541562080383 0.819008409976959229
-1.52068102359771729 1.98892199993133545 1.8368147611618042 -0.439701557159423828 -0.492240160703659058 0.751240432262420654
-1.53319418430328369 1.77956414222717285 2.96892189979553223 -0.453865945339202881 -0.177216365933418274 -0.873269796371459961
-2.18969631195068359 1.6903911828994751 2.95990371704101562 0.492000758647918701 -0.0375396646559238434 -0.869785070419311523
-1.51024949550628662 2.03441262245178223 2.84098196029663086 -0.48449397087097168 -0.528542399406433105 -0.697071433067321777
-1.63297092914581299 1.91718769073486328 2.97031259536743164 -0.333454132080078125 -0.375731706619262695 -0.864658355712890625
-0.00300023844465613365 4.47818899154663086 3.48749613761901855 0.698741436004638672 -0.277307897806167603 0.659439682960510254
-1.70341360569000244 2.31530213356018066 2.16986632347106934 -0.240360945463180542 -0.91937100887298584 0.311421990394592285
-1.04081499576568604 2.31961798667907715 0.00300000002607703209 0.772059798240661621 -0.594617366790771484 -0.224396988749504089
-2.18376421928405762 1.9050973653793335 2.91367816925048828 0.502295255661010742 -0.353858411312103271 -0.788976371288299561
-1.92637920379638672 2.19883894920349121 2.79234743118286133 0.133817225694656372 -0.773563265800476074 -0.619429469108581543
-2.94496536254882812 5.49700021743774414 0.442362546920776367 0.479580789804458618 0.852676331996917725 0.207232803106307983
-2.09597301483154297 1.76641523838043213 2.99785995483398438 0.3748016357421875 -0.149185791611671448 -0.915023207664489746
-1.18477344512939453 1.86577725410461426 2.41385841369628906 -0.835769236087799072 -0.385322988033294678 -0.391172528266906738
-1.7543942928314209 1.87970137596130371 3.01354551315307617 -0.121961914002895355 -0.292402327060699463 -0.948486268520355225
-2.68353128433227539 2.95219802856445312 2.0041954517364502 -0.486202895641326904 0.792473435401916504 -0.368229806423187256
-0.00300000002607703209 4.47331047058105469 2.43414068222045898 0.516523063182830811 -0.449119210243225098 0.729037582874298096
-2.11728930473327637 2.63384509086608887 1.64342522621154785 -0.299650758504867554 -0.912826418876647949 0.277412056922912598
-2.45591402053833008 1.96176016330718994 2.48099923133850098 0.879256248474121094 -0.44040343165397644 -0.181530088186264038
-1.78956401348114014 1.97686648368835449 2.97665691375732422 -0.0729239657521247864 -0.44203457236289978 -0.894028902053833008
-2.11723947525024414 1.88631236553192139 1.75938975811004639 0.331401228904724121 -0.387378871440887451 0.860296964645385742
-1.8940889835357666 1.15617537498474121 2.82630252838134766 0.0889260023832321167 0.713322579860687256 -0.6951712965965271
-1.81302559375762939 1.29046905040740967 2.94187450408935547 -0.0334779731929302216 0.53018420934677124 -0.847221255302429199
-1.30469536781311035 2.08928275108337402 2.4415595531463623 -0.940947532653808594 -0.311921894550323486 -0.131614774465560913
-3.68907785415649414 4.3741145133972168 0.579530000686645508 -0.466347187757492065 -0.459608495235443115 -0.755830883979797363
-0.00300000002607703209 2.94013166427612305 3.42708754539489746 0.7510528564453125 0.505618453025817871 0.424581587314605713
-2.28056168556213379 1.9752575159072876 2.79788899421691895 0.424865484237670898 -0.372830092906951904 -0.824916481971740723
-2.15404343605041504 1.64802861213684082 2.97955608367919922 0.445948749780654907 0.0281866677105426788 -0.894614577293395996
-1.65532767772674561 1.72164225578308105 3.02534770965576172 -0.264982819557189941 -0.0743836164474487305 -0.961379885673522949
-0.00300000002607703209 4.69437980651855469 2.52705502510070801 0.826694786548614502 -0.258881568908691406 -0.499555885791778564
-1.66514849662780762 1.46575617790222168 2.99962997436523438 -0.258044958114624023 0.304144442081451416 -0.917010903358459473
-2.52662181854248047 2.31820034980773926 0.103238344192504883 0.801092743873596191 -0.523159801959991455 0.290782064199447632
-1.3803870677947998 1.62732958793640137 2.87299299240112305 -0.702646493911743164 0.0667160376906394958 -0.708404421806335449
-1.879974365234375 2.35240530967712402 2.42333698272705078 0.0934860408306121826 -0.991376876831054688 -0.0918274223804473877
-3.40493583679199219 5.49700021743774414 5.48433017730712891 0.210335135459899902 0.946227967739105225 -0.245788007974624634
-3.53231430053710938 2.63456344604492188 0.00300000002607703209 0.180253490805625916 -0.132848769426345825 -0.974607586860656738
-1.68170344829559326 2.32745838165283203 2.24496221542358398 -0.223204776644706726 -0.675048470497131348 0.703199267387390137
-1.2283778190612793 1.95526254177093506 2.23624730110168457 -0.0770777091383934021 -0.746520638465881348 0.660882771015167236
-0.411334037780761719 4.25258731842041016 0.00300000002607703209 0.271177291870117188 -0.215249240398406982 -0.938152790069580078
-2.47074079513549805 1.82383584976196289 1.65299630165100098 -0.0929567664861679077 -0.694475889205932617 -0.713486135005950928
-3.86898016929626465 2.93034553527832031 3.81453585624694824 -0.727562069892883301 0.457097828388214111 0.511581361293792725
-2.31880903244018555 1.23545944690704346 2.61971473693847656 0.705599188804626465 0.605064272880554199 -0.368818402290344238
-2.12466239929199219 1.81372165679931641 1.65299630165100098 -0.0935902595520019531 -0.0902334749698638916 -0.991513431072235107
-2.14860367774963379 1.82984685897827148 1.75639951229095459 0.427366316318511963 -0.336218655109405518 0.839234828948974609
-2.38066554069519043 2.07958769798278809 2.49206733703613281 0.774806976318359375 -0.606089591979980469 -0.179804429411888123
-1.70577538013458252 2.16416358947753906 2.81894063949584961 -0.224509537220001221 -0.731552958488464355 -0.64375913143157959
-2.33192157745361328 1.6807708740234375 2.85059642791748047 0.685188055038452148 -0.0184656791388988495 -0.728132128715515137
-3.5987708568572998 3.02547574043273926 3.72477602958679199 -0.677468419075012207 0.522210359573364258 0.518009305000305176
-1.89915692806243896 1.66075098514556885 3.05251574516296387 0.0742817148566246033 0.0390696078538894653 -0.996471643447875977
-1.83321535587310791 1.16341006755828857 2.83629822731018066 -0.015416337177157402 0.718502044677734375 -0.695353984832763672
-5.49700069427490234 1.54583930969238281 4.57477855682373047 -0.856777071952819824 -0.0308516807854175568 0.51476365327835083
-1.43867182731628418 5.49700021743774414 1.77118372917175293 -0.441613733768463135 0.438689738512039185 -0.782642066478729248
-1.33956825733184814 2.09101152420043945 2.56448149681091309 -0.451269328594207764 -0.669014215469360352 -0.590572595596313477
-1.41813051700592041 2.20211291313171387 2.44771456718444824 -0.495635986328125 -0.768648207187652588 -0.404382258653640747
-0.00300000002607703209 4.97122097015380859 4.19104957580566406 0.893596649169921875 -0.121200896799564362 0.432198286056518555
-2.37467527389526367 1.61967003345489502 2.80138039588928223 0.607717514038085938 -0.0202029123902320862 -0.793896377086639404
-0.0314161777496337891 -0.557474613189697266 5.49700021743774414 -0.104247584939002991 -0.87648928165435791 0.46999889612197876
-0.00299976160749793053 5.186309814453125 4.71988677978515625 0.557887256145477295 -0.0860331803560256958 0.825445413589477539
-1.70907759666442871 1.21930956840515137 2.87231993675231934 -0.179287835955619812 0.658736944198608398 -0.730699300765991211
-2.1799323558807373 2.36609315872192383 5.49700021743774414 -0.883014142513275146 0.0396145544946193695 0.467671573162078857
-0.259520769119262695 0.81607663631439209 0.00300000002607703209 -0.055881991982460022 -0.3163890540599823 -0.946982145309448242
-1.80542659759521484 2.15927529335021973 2.84297871589660645 -0.0492928475141525269 -0.718663573265075684 -0.693608641624450684
-2.23847436904907227 1.83015215396881104 2.90458583831787109 0.460423886775970459 -0.265504568815231323 -0.847063899040222168
-1.96351957321166992 2.21748924255371094 2.75845026969909668 0.268256723880767822 -0.660868823528289795 -0.700921356678009033
-1.44660615921020508 1.93953537940979004 2.85596942901611328 -0.556309640407562256 -0.398540258407592773 -0.729167580604553223
-0.448833465576171875 3.13336610794067383 5.49700021743774414 -0.808392822742462158 -0.325177848339080811 0.490673452615737915
-1.0091865062713623 1.62765669822692871 1.65299618244171143 -0.246485203504562378 -0.412785321474075317 -0.876842856407165527
-1.9946892261505127 1.32493627071380615 2.94427871704101562 0.221148848533630371 0.482413589954376221 -0.847567319869995117
-1.42443597316741943 5.49700021743774414 0.941939830780029297 0.30253562331199646 0.557370960712432861 -0.773181617259979248
-1.51846110820770264 1.3946913480758667 2.90819478034973145 -0.484077632427215576 0.390841543674468994 -0.782886803150177002
-1.27636921405792236 1.27560055255889893 2.41983866691589355 -0.94230949878692627 0.327848494052886963 -0.0675877481698989868
-2.27711749076843262 3.2610011100769043 0.00300000002607703209 0.543079376220703125 -0.59821552038192749 -0.589239358901977539
-5.44342517852783203 5.39331817626953125 0.00300000002607703209 -0.496957242488861084 -0.113269224762916565 -0.860350847244262695
-1.37045812606811523 2.03784489631652832 2.69880366325378418 -0.666887819766998291 -0.55580979585647583 -0.496322661638259888
-3.38651680946350098 4.4679722785949707 0.596358537673950195 0.324531763792037964 -0.862060964107513428 -0.389268606901168823
-1.8015979528427124 1.03852951526641846 2.64823341369628906 0.02902960404753685 0.73006051778793335 -0.682765722274780273
-1.95683443546295166 1.75220692157745361 3.03962254524230957 0.256795287132263184 -0.179508328437805176 -0.949648857116699219
-2.65111589431762695 2.9879310131072998 0.204719901084899902 -0.849316775798797607 0.427601605653762817 0.309544533491134644
-2.35226273536682129 2.09902071952819824 2.5347445011138916 0.725824475288391113 -0.630702972412109375 -0.274577170610427856
-1.59501385688781738 1.98057544231414795 2.92419743537902832 -0.346038222312927246 -0.454607993364334106 -0.820724785327911377
-1.69192242622375488 1.81602096557617188 3.01971626281738281 -0.223634049296379089 -0.225888758897781372 -0.948136210441589355
-2.31486964225769043 2.1237339973449707 2.5724787712097168 0.607130765914916992 -0.641191482543945312 -0.469324767589569092
-3.39029121398925781 3.73955869674682617 3.30299234390258789 0.885317146778106689 -0.157170772552490234 -0.437619507312774658
-0.00300000002607703209 2.75319361686706543 3.58070278167724609 0.74416816234588623 0.443152755498886108 0.499829918146133423
-4.45839405059814453 3.22464704513549805 0.376426935195922852 0.0289782397449016571 0.949224472045898438 0.313262194395065308
-2.84419822692871094 1.12260568141937256 0.976816654205322266 0.907562792301177979 -0.140096202492713928 0.395857125520706177
-1.9622269868850708 1.64450287818908691 3.04393506050109863 0.179353773593902588 0.0495536811649799347 -0.982535898685455322
-0.276503801345825195 2.22976589202880859 0.00300000002607703209 0.586942732334136963 0.29615938663482666 -0.753516972064971924
-0.00300000002607703209 2.82636141777038574 0.0100827217102050781 0.630873978137969971 -0.766799271106719971 0.118392713367938995
-1.29018938541412354 2.05564451217651367 2.4956519603729248 -0.809132933616638184 -0.545116543769836426 -0.219435185194015503
-1.37815141677856445 1.29465329647064209 2.00465846061706543 -0.808412790298461914 0.546619951725006104 0.218347072601318359
-1.41333961486816406 1.37387645244598389 2.81663203239440918 -0.402420312166213989 0.252639651298522949 -0.879904031753540039
-5.49700021743774414 1.92593073844909668 2.90318107604980469 -0.987736701965332031 0.0675587505102157593 0.140756353735923767
-3.66322469711303711 0.502645254135131836 0.173631906509399414 -0.287099659442901611 -0.957891523838043213 -0.00419991230592131615
-0.504629611968994141 -0.153750419616699219 5.49700021743774414 0.534514784812927246 -0.161709234118461609 0.829544484615325928
-1.39557468891143799 1.59175765514373779 2.88241481781005859 -0.638444662094116211 0.10679907351732254 -0.762221932411193848
-1.94791805744171143 1.61433589458465576 3.04484844207763672 0.185858309268951416 -0.0267519503831863403 -0.982212305068969727
-2.34805011749267578 1.46521031856536865 2.78911614418029785 0.731763184070587158 0.280793309211730957 -0.62102961540222168
-5.49700021743774414 1.15621578693389893 4.34801959991455078 -0.87342602014541626 -0.123877406120300293 0.470937073230743408
-2.63758206367492676 5.48768329620361328 5.49700021743774414 -0.364642888307571411 -0.248560681939125061 0.897359013557434082
-5.49700021743774414 2.06106162071228027 5.46404457092285156 -0.940596163272857666 -0.339441090822219849 -0.00765326619148254395
-3.88507962226867676 3.32233929634094238 3.33200788497924805 0.976745307445526123 0.158454269170761108 0.144432678818702698
-1.39234459400177002 -0.370556354522705078 5.49700021743774414 0.123198851943016052 -0.544260621070861816 0.829821109771728516
-1.66160547733306885 2.28382015228271484 2.6080482006072998 -0.24637901782989502 -0.896097898483276367 -0.369196414947509766
-0.00300000002607703209 4.35348939895629883 0.0503256320953369141 0.798910140991210938 -0.601222634315490723 -0.0165489371865987778
-0.403882980346679688 1.66907095909118652 0.00299952318891882896 0.30403977632522583 0.0119340214878320694 -0.952584564685821533
-2.33528304100036621 1.30005919933319092 2.68110489845275879 0.703429520130157471 0.544613301753997803 -0.45670926570892334
-1.34407246112823486 1.55633866786956787 1.89037680625915527 -0.519106805324554443 0.125214725732803345 0.845487654209136963
-0.00300000002607703209 3.87296772003173828 5.06658315658569336 0.502293825149536133 0.558636009693145752 0.66002047061920166
-1.98840880393981934 1.49179840087890625 3.01578021049499512 0.208728745579719543 0.237006902694702148 -0.948820352554321289
-2.03132081031799316 1.4840538501739502 3.0025477409362793 0.263764739036560059 0.242134839296340942 -0.933701753616333008
-2.4200432300567627 1.96732878684997559 2.12343597412109375 0.856698274612426758 -0.487794280052185059 0.167704671621322632
-3.47890686988830566 3.55398178100585938 3.30299234390258789 0.805704951286315918 -0.20757998526096344 -0.554752111434936523
-1.56740784645080566 1.96608757972717285 2.91936492919921875 -0.176580965518951416 -0.247370481491088867 -0.95269465446472168
-2.17818260192871094 1.68283176422119141 2.96676898002624512 0.489842355251312256 -0.0386576130986213684 -0.870953559875488281
-2.43599486351013184 1.50465703010559082 2.6781916618347168 0.738369345664978027 0.17134547233581543 -0.652266383171081543
-1.77474880218505859 1.76606059074401855 3.04351687431335449 -0.0834770649671554565 -0.161905035376548767 -0.983269214630126953
-1.62504029273986816 1.87959671020507812 2.98176002502441406 -0.31813320517539978 -0.312114357948303223 -0.895196080207824707
-2.25408673286437988 1.98405241966247559 2.81673860549926758 0.597422599792480469 -0.462724566459655762 -0.654959738254547119
-1.76734137535095215 2.10492324829101562 2.88924765586853027 -0.110089465975761414 -0.641124606132507324 -0.759499549865722656
-1.79681932926177979 1.26744115352630615 2.92504596710205078 -0.0666269585490226746 0.566436648368835449 -0.821407556533813477
-2.21692395210266113 2.18845891952514648 1.65299618244171143 -0.707042217254638672 0.390472829341888428 -0.58959507942199707
-1.95440292358398438 2.10515809059143066 1.65299630165100098 -0.19910566508769989 0.301778316497802734 -0.932355642318725586
-5.49700021743774414 2.81387829780578613 0.248883724212646484 -0.732710957527160645 -0.592486739158630371 0.334804564714431763
-1.61903977394104004 2.13335275650024414 1.89939188957214355 -0.27779155969619751 -0.700195550918579102 0.657691478729248047
-2.24078464508056641 1.95347726345062256 2.84829115867614746 0.589083850383758545 -0.414244294166564941 -0.693816959857940674
-1.90465974807739258 1.13174724578857422 2.79625296592712402 0.115834474563598633 0.575742602348327637 -0.809384286403656006
-3.11062192916870117 4.46921014785766602 1.17222762107849121 -0.648497700691223145 -0.468914270401000977 0.599641680717468262
-1.65203499794006348 1.69347858428955078 3.02617287635803223 -0.265841931104660034 -0.0428165718913078308 -0.96306532621383667
-1.90982544422149658 1.59864902496337891 3.04810309410095215 0.122151121497154236 0.0735853910446166992 -0.989779949188232422
-1.88522756099700928 1.97730851173400879 2.97742915153503418 0.0616205111145973206 -0.44710955023765564 -0.892354249954223633
-2.28138136863708496 1.45386314392089844 1.86358273029327393 0.609812498092651367 0.170339047908782959 0.774024128913879395
-0.00300000002607703209 1.86391830444335938 1.09846591949462891 0.827230453491210938 0.125063538551330566 -0.547767281532287598
-2.68238139152526855 2.30865192413330078 5.49700021743774414 -0.250499159097671509 0.191338106989860535 0.949020922183990479
-2.37676072120666504 1.91530930995941162 1.65299630165100098 -0.58853912353515625 0.264329016208648682 -0.76403653621673584
-1.40591514110565186 1.19956111907958984 2.62276124954223633 -0.714919686317443848 0.416278362274169922 -0.561784863471984863
-0.00300000002607703209 1.0283358097076416 4.04718399047851562 0.717654228210449219 -0.276746571063995361 0.639049410820007324
-1.65007460117340088 2.2694556713104248 2.63353180885314941 -0.28806033730506897 -0.866163134574890137 -0.408390462398529053
-2.17175555229187012 1.83349418640136719 1.76997661590576172 0.515073657035827637 -0.268290519714355469 0.814075827598571777
-1.50216901302337646 5.03530550003051758 5.49700021743774414 -0.310261398553848267 -0.509416937828063965 0.802640795707702637
-3.26798653602600098 2.77089476585388184 3.12224841117858887 -0.731358945369720459 0.568004608154296875 0.377472162246704102
-1.88465726375579834 2.15570330619812012 2.84655594825744629 0.0549486801028251648 -0.71741020679473877 -0.694480478763580322
-2.33241724967956543 1.45964062213897705 1.91192090511322021 0.642549991607666016 0.417016655206680298 0.642827033996582031
-2.25042963027954102 2.09964776039123535 2.71198844909667969 0.598940610885620117 -0.626902401447296143 -0.498260557651519775
-2.48643589019775391 5.49700021743774414 3.42153573036193848 -0.615057885646820068 0.585401237010955811 0.528213143348693848
-5.49700069427490234 4.35610151290893555 4.69793939590454102 -0.955444633960723877 -0.257557541131973267 -0.144186139106750488
-0.00300000002607703209 2.33500480651855469 5.06876373291015625 0.559376835823059082 0.199155345559120178 0.804633617401123047
-1.39132237434387207 1.94296228885650635 2.80355048179626465 -0.632544875144958496 -0.408184230327606201 -0.658234477043151855
-1.46634292602539062 1.32090473175048828 2.82688760757446289 -0.533326029777526855 0.475909709930419922 -0.69933784008026123
-2.15947818756103516 1.9024360179901123 1.78746581077575684 0.797679424285888672 0.290228813886642456 0.528653740882873535
-2.24850201606750488 1.78132355213165283 1.80674779415130615 0.587368369102478027 -0.225875884294509888 0.777160525321960449
-1.55138707160949707 2.28618454933166504 2.27737283706665039 -0.415179908275604248 -0.909609556198120117 -0.0153657346963882446
-1.51436173915863037 1.10585606098175049 2.5969843864440918 -0.46727105975151062 0.806590676307678223 -0.362034976482391357
-4.56669378280639648 0.171591073274612427 0.74832528829574585 0.160334542393684387 0.352497577667236328 -0.921975255012512207
-5.14045143127441406 0.39752960205078125 0.00300000002607703209 -0.242223247885704041 -0.399434655904769897 -0.884183168411254883
-2.32855868339538574 1.79347407817840576 2.8368232250213623 0.696440458297729492 -0.193075552582740784 -0.691153049468994141
-5.49700021743774414 5.35741710662841797 0.320415019989013672 -0.626167833805084229 -0.604771196842193604 -0.492103219032287598
-1.43011808395385742 1.74422526359558105 1.80685019493103027 -0.621963858604431152 -0.130841821432113647 0.772037267684936523
-2.32835006713867188 1.82382631301879883 2.8278956413269043 0.627068996429443359 -0.171400010585784912 -0.759872674942016602
-3.10698223114013672 4.45747613906860352 0.595140695571899414 -0.97717440128326416 0.210761651396751404 0.0266406424343585968
-0.00300000002607703209 1.77894437313079834 4.88271808624267578 0.598295331001281738 0.0371014364063739777 0.80041658878326416
-2.70953202247619629 5.49700021743774414 1.52043914794921875 0.314071863889694214 0.729840099811553955 -0.607200443744659424
-2.40080523490905762 1.90058326721191406 2.69499397277832031 0.581693291664123535 -0.421573728322982788 -0.695635318756103516
-1.30367684364318848 1.78869032859802246 1.94249272346496582 -0.776459813117980957 -0.164837807416915894 0.608225822448730469
-1.56999540328979492 1.7004474401473999 2.99589633941650391 -0.274701952934265137 -0.0729616880416870117 -0.958757281303405762
-1.53082489967346191 2.27522373199462891 2.27246332168579102 -0.274495780467987061 -0.936388850212097168 -0.218695953488349915
-1.46707701683044434 1.61902308464050293 2.93958425521850586 -0.526991844177246094 0.0594188570976257324 -0.847790658473968506
-2.05773138999938965 1.59333229064941406 3.01580953598022461 0.263152182102203369 -0.0261153914034366608 -0.964400768280029297
-1.68400537967681885 1.80905961990356445 3.01940155029296875 -0.231992840766906738 -0.21049797534942627 -0.949668347835540771
-1.19971597194671631 1.44229710102081299 2.24390792846679688 -0.936709821224212646 0.311891078948974609 0.159055441617965698
-2.17527151107788086 2.25514650344848633 2.49916386604309082 0.478240698575973511 -0.848083376884460449 -0.228123828768730164
-1.73696684837341309 1.30157220363616943 2.93997812271118164 -0.0731489211320877075 0.340246200561523438 -0.937486946582794189
-2.20361781120300293 2.02271914482116699 1.88578081130981445 0.454462826251983643 -0.573353767395019531 0.681710362434387207
-0.00300000002607703209 3.34543871879577637 0.341919660568237305 0.665650904178619385 0.154250383377075195 0.730147719383239746
-2.37199711799621582 1.99333381652832031 2.6616966724395752 0.750135660171508789 -0.481703102588653564 -0.453054845333099365
-2.03491353988647461 1.81244611740112305 1.70643973350524902 0.686551511287689209 -0.681834936141967773 0.252484112977981567
-0.0154235363006591797 3.51188993453979492 5.49700021743774414 -0.192675724625587463 -0.973352253437042236 0.124344006180763245
-1.79759979248046875 1.39481854438781738 2.99669551849365234 -0.0640137791633605957 0.395598471164703369 -0.916190028190612793
-2.53452754020690918 1.69002401828765869 2.35856795310974121 0.889922022819519043 -0.163122564554214478 -0.42594599723815918
-2.14753365516662598 2.2442619800567627 2.13327693939208984 0.464475065469741821 -0.875894427299499512 0.130659192800521851
-1.50973725318908691 1.86365163326263428 2.93356013298034668 -0.494367480278015137 -0.288552373647689819 -0.819962382316589355
-1.60831665992736816 1.63510501384735107 3.01160573959350586 -0.354109972715377808 0.0420124009251594543 -0.934259653091430664
-1.28071951866149902 0.911157429218292236 1.65299618244171143 -0.695309817790985107 0.442891329526901245 -0.566031336784362793
-2.02745413780212402 2.33056879043579102 2.39276361465454102 0.263676494359970093 -0.789247214794158936 -0.554584205150604248
-0.921787023544311523 5.49700021743774414 0.164869308471679688 -0.555603444576263428 0.77686607837677002 0.296283513307571411
-1.8368680477142334 2.55016207695007324 0.979975044727325439 -0.410299360752105713 -0.850650548934936523 0.328706681728363037
-0.0620338916778564453 5.49700021743774414 3.71870732307434082 -0.0162476431578397751 0.998983025550842285 -0.0420590043067932129
-1.63148641586303711 1.14741671085357666 2.76646614074707031 -0.358569294214248657 0.726560533046722412 -0.586121022701263428
-5.43806552886962891 1.4706873893737793 5.49700021743774414 -0.765966057777404785 -0.0460577905178070068 0.641229391098022461
-0.00300000002607703209 4.7881011962890625 3.93008875846862793 0.300448000431060791 -0.150015830993652344 0.941926896572113037
-1.86944985389709473 2.23659133911132812 1.96776020526885986 -0.252485543489456177 -0.861801266670227051 0.439943015575408936
-1.27388405799865723 1.15185701847076416 1.65299606323242188 -0.435646027326583862 -0.103721380233764648 -0.89412224292755127
-2.35028409957885742 2.10846400260925293 2.20102024078369141 0.737006902694702148 -0.672410011291503906 0.0684510469436645508
-1.19624722003936768 1.72761368751525879 2.59345006942749023 -0.930921077728271484 -0.0773368030786514282 -0.356938391923904419
-5.49700021743774414 -0.210340261459350586 4.28072643280029297 -0.827515840530395508 -0.0531909465789794922 -0.558916985988616943
-5.49700021743774414 0.781403064727783203 1.98156213760375977 -0.99214935302734375 -0.0945693477988243103 0.0818312093615531921
-0.478150844573974609 0.482834815979003906 0.00300000002607703209 0.245954945683479309 -0.912780046463012695 -0.326096147298812866
-2.02642440795898438 2.25075626373291016 2.67868399620056152 0.283100247383117676 -0.844483852386474609 -0.454644232988357544
-5.49699974060058594 -0.440364837646484375 3.84870052337646484 -0.870862901210784912 -0.174257054924964905 -0.459600090980529785
-0.00299976160749793053 3.07391881942749023 5.05844402313232422 0.850838422775268555 0.0714904889464378357 0.520541191101074219
-2.32855129241943359 2.11278724670410156 2.56528115272521973 0.670340061187744141 -0.574440181255340576 -0.469747453927993774
-1.84343874454498291 1.21010935306549072 2.88176345825195312 0.0665525048971176147 0.333054065704345703 -0.940556049346923828
-1.74561214447021484 2.03988242149353027 1.78215217590332031 0.712383091449737549 0.144799128174781799 0.686690330505371094
-5.49699926376342773 0.0300030708312988281 2.61676406860351562 -0.764188885688781738 -0.639889717102050781 0.080972038209438324
-1.88880038261413574 4.876007080078125 0.00300000002607703209 0.296118885278701782 0.497704625129699707 -0.815232336521148682
-1.74914824962615967 2.27257347106933594 2.67601370811462402 -0.149886727333068848 -0.87721407413482666 -0.456102550029754639
-1.18648433685302734 1.87640178203582764 2.38684940338134766 -0.92321479320526123 -0.326772242784500122 -0.202223449945449829
-1.33063292503356934 1.77208840847015381 2.81144380569458008 -0.732806682586669922 -0.165398448705673218 -0.660028636455535889
-2.26071739196777344 2.12950491905212402 2.05906438827514648 0.639434695243835449 -0.700810909271240234 0.316207736730575562
-2.00073695182800293 1.17542803287506104 2.82297182083129883 0.215003669261932373 0.718679487705230713 -0.66126638650894165
-2.1605372428894043 5.49700021743774414 1.32069754600524902 0.210495129227638245 0.966194689273834229 0.148861289024353027
-0.338677167892456055 5.25465488433837891 0.00300000002607703209 -0.0472033023834228516 -0.807193398475646973 -0.588396728038787842
-0.6579742431640625 5.49700021743774414 5.16812038421630859 0.256965816020965576 0.926421582698822021 -0.275157511234283447
-1.70493125915527344 1.62118911743164062 3.03891468048095703 -0.239575713872909546 0.105356082320213318 -0.96514427661895752
-2.20536637306213379 2.91380167007446289 5.49700021743774414 -0.18593248724937439 0.364051103591918945 0.912631511688232422
-0.644567012786865234 1.66042542457580566 0.00300000002607703209 -0.74237978458404541 -0.525640666484832764 -0.415420413017272949
-2.46741676330566406 1.37374258041381836 2.420745849609375 0.803905487060546875 0.306257724761962891 -0.509845376014709473
-0.00300000002607703209 3.98251938819885254 4.58178186416625977 0.798150300979614258 -0.59417647123336792 0.0995513796806335449
-2.53155136108398438 1.72859728336334229 2.38212943077087402 0.945345044136047363 -0.242663860321044922 -0.217800334095954895
-3.51533937454223633 0.99996030330657959 0.00300000002607703209 0.597582459449768066 -0.0426825210452079773 -0.800670623779296875
-1.79757881164550781 1.89262092113494873 3.01365041732788086 -0.0612877644598484039 -0.311462968587875366 -0.948279857635498047
-2.44362878799438477 1.52420997619628906 2.67302656173706055 0.868405520915985107 0.193701222538948059 -0.456455588340759277
-2.41674709320068359 1.7557908296585083 1.98022341728210449 0.837607502937316895 -0.127020314335823059 0.531299829483032227
-5.49700021743774414 4.10221195220947266 5.48975372314453125 -0.998639404773712158 -0.0518578514456748962 -0.00548237701877951622
-2.20075488090515137 2.1099700927734375 2.75111293792724609 0.49947512149810791 -0.520122289657592773 -0.69281846284866333
-2.01341915130615234 2.0988156795501709 2.87237930297851562 0.250167757272720337 -0.656579971313476562 -0.711560845375061035
-2.024017333984375 1.53035712242126465 3.016021728515625 0.254409432411193848 0.1880999356508255 -0.948627591133117676
-0.00300000002607703209 3.43142604827880859 2.16539883613586426 0.34504207968711853 0.609892189502716064 0.713426589965820312
-1.70702147483825684 2.13835239410400391 1.87034046649932861 -0.19225756824016571 -0.70019984245300293 0.687573432922363281
-2.01506304740905762 1.36005532741546631 2.95813155174255371 0.29958343505859375 0.274750322103500366 -0.913653194904327393
-1.49546384811401367 1.90032708644866943 2.91042923927307129 -0.494905412197113037 -0.356351971626281738 -0.792516171932220459
-0.00300000002607703209 2.00687837600708008 0.0213406085968017578 0.66391599178314209 -0.746225416660308838 0.0486123450100421906
-3.48806643486022949 2.70262336730957031 1.69450175762176514 -0.802939891815185547 0.508822202682495117 -0.310464203357696533
-2.28588986396789551 2.19625949859619141 2.36791801452636719 0.64809715747833252 -0.747366428375244141 -0.146333172917366028
-3.45389986038208008 0.734845399856567383 5.49700021743774414 -0.440760523080825806 -0.258068352937698364 0.859727621078491211
-2.3576054573059082 1.93110597133636475 2.73871183395385742 0.749620318412780762 -0.382829964160919189 -0.539917290210723877
-2.14114475250244141 2.04387474060058594 2.85718727111816406 0.423340797424316406 -0.540202558040618896 -0.727299034595489502
-2.12054014205932617 1.99949419498443604 2.89968276023864746 0.402517557144165039 -0.465317785739898682 -0.788326740264892578
-2.28524994850158691 1.73688626289367676 2.88850855827331543 0.642603456974029541 -0.111500807106494904 -0.758042454719543457
-1.66595578193664551 2.25014853477478027 2.03374862670898438 -0.259006500244140625 -0.622502148151397705 0.738516688346862793
-1.83085536956787109 2.24471521377563477 1.97973036766052246 -0.243042230606079102 -0.629212379455566406 0.738256216049194336
-2.38991498947143555 1.97339248657226562 2.65052342414855957 0.0646878406405448914 -0.825746893882751465 0.560319304466247559
-1.54439377784729004 2.27019429206848145 2.50657391548156738 -0.45255666971206665 -0.863196372985839844 -0.223795533180236816
-1.61924648284912109 1.21737396717071533 2.83726692199707031 -0.341011464595794678 0.641219794750213623 -0.687421560287475586
-1.34389805793762207 1.82533097267150879 2.81052708625793457 -0.723750650882720947 -0.236000120639801025 -0.648451268672943115
-0.00800299644470214844 3.36229968070983887 5.49700021743774414 -0.234046131372451782 -0.790534138679504395 0.565931260585784912
-0.151250362396240234 3.19756484031677246 5.49700021743774414 -0.719645202159881592 0.324451237916946411 0.613874733448028564
-1.3972175121307373 1.52757585048675537 2.87082099914550781 -0.437607407569885254 0.151300475001335144 -0.886345386505126953
-2.89042210578918457 5.49700021743774414 4.52489757537841797 -0.231437638401985168 0.850298762321472168 0.472682356834411621
-1.84978771209716797 2.03739237785339355 2.94425582885742188 0.056254751980304718 -0.547493934631347656 -0.834916591644287109
-2.3419792652130127 1.38454294204711914 1.96763467788696289 0.69717109203338623 0.418982952833175659 0.581726551055908203
-2.6126093864440918 5.49700021743774414 4.17367458343505859 -0.0765708163380622864 0.595075309276580811 0.800013899803161621
-0.285901546478271484 2.95590662956237793 5.49700021743774414 0.423241615295410156 0.345517277717590332 0.837546706199645996
-1.98067808151245117 2.16565823554992676 2.81763005256652832 0.227850854396820068 -0.748505711555480957 -0.622754514217376709
-1.82758224010467529 1.35020232200622559 2.97718119621276855 -0.0331111326813697815 0.442000150680541992 -0.896403670310974121
-4.36142921447753906 1.7196115255355835 5.49700021743774414 -0.62616497278213501 0.0138766001909971237 0.779567599296569824
-2.39221358299255371 1.84264707565307617 2.74205803871154785 0.798454225063323975 -0.265445888042449951 -0.540378868579864502
-2.40537261962890625 2.00766229629516602 2.57153081893920898 0.772035598754882812 -0.432301998138427734 -0.465914309024810791
-1.73506712913513184 1.9892725944519043 2.96272659301757812 -0.146804153919219971 -0.467812240123748779 -0.871550440788269043
-1.89777159690856934 1.90723490715026855 3.0074923038482666 0.0846581459045410156 -0.35418546199798584 -0.93133544921875
-0.538775920867919922 2.97014069557189941 0.00300000002607703209 -0.30885004997253418 0.343760132789611816 -0.886814892292022705
-1.78903889656066895 1.81754565238952637 1.68158531188964844 0.665518641471862793 -0.672577381134033203 0.323611825704574585
-3.35794925689697266 3.41797757148742676 4.13282537460327148 -0.519725501537322998 0.608754217624664307 0.599419713020324707
-1.89542388916015625 2.56763672828674316 0.549773931503295898 0.0452008992433547974 -0.895514070987701416 0.4427318274974823
-2.3042142391204834 5.49699974060058594 4.55682659149169922 -0.46942552924156189 0.829634487628936768 0.302235513925552368
-2.17798900604248047 1.06115496158599854 2.32406306266784668 0.501155853271484375 0.864285409450531006 -0.0430539697408676147
-0.797626137733459473 3.37134981155395508 0.00300000002607703209 0.729063808917999268 0.535637438297271729 -0.42609676718711853
-1.24616682529449463 1.92320573329925537 2.59197711944580078 -0.862078428268432617 -0.388253062963485718 -0.325699687004089355
-1.42282760143280029 1.99845993518829346 2.7961881160736084 -0.614476680755615234 -0.488632559776306152 -0.619400203227996826
-2.81422138214111328 0.411037683486938477 5.49700021743774414 -0.507246971130371094 -0.388831913471221924 0.769097030162811279
-4.15110492706298828 2.34792828559875488 0.00300000002607703209 -0.518171727657318115 -0.834450840950012207 -0.187589719891548157
-4.08593368530273438 5.49411582946777344 5.49700021743774414 0.114830128848552704 -0.0145214591175317764 0.993278980255126953
-3.76554489135742188 3.97128915786743164 4.23147439956665039 -0.964671313762664795 0.122218310832977295 -0.233392208814620972
-1.87268304824829102 1.61134839057922363 3.05204200744628906 0.0798109769821166992 -0.0312745682895183563 -0.996319293975830078
-1.74022352695465088 1.2895582914352417 2.93274354934692383 -0.147209256887435913 0.550586223602294922 -0.821695983409881592
-2.05807232856750488 1.24584054946899414 2.86730289459228516 0.312194466590881348 0.610220432281494141 -0.728124797344207764
-1.72213065624237061 2.51592302322387695 1.04730892181396484 -0.169330447912216187 -0.527991354465484619 0.832197308540344238
-1.65521383285522461 1.46332311630249023 2.99582004547119141 -0.276640743017196655 0.286046594381332397 -0.91741335391998291
-3.09941816329956055 0.11887359619140625 5.49700021743774414 0.192038401961326599 0.109302207827568054 0.975281655788421631
-2.1438140869140625 1.25993013381958008 2.83398938179016113 0.415726661682128906 0.586696326732635498 -0.69495236873626709
-1.87029898166656494 2.3227686882019043 2.57036972045898438 -0.0010836506262421608 -0.95569312572479248 -0.294363021850585938
-2.25542235374450684 5.49700021743774414 0.60001373291015625 0.55631941556930542 0.468036055564880371 0.686622858047485352
-0.00300000002607703209 1.47465968132019043 4.96144199371337891 0.573816955089569092 -0.0740820914506912231 0.815626025199890137
-1.95244419574737549 1.12593579292297363 2.77939224243164062 0.176038235425949097 0.764236807823181152 -0.620445549488067627
