ply
format ascii 1.0
element vertex 373
property float x
property float y
property float z
property float nx
property float ny
property float nz
end_header
-2.33863973617553711 -0.368494987487792969 0.000300000014249235392 0.0739480331540107727 -0.146559387445449829 -0.986433982849121094
-5.49970006942749023 1.36780989170074463 5.26855087280273438 -0.999512910842895508 -0.022863512858748436 -0.0212408825755119324
-0.000300000014249235392 2.4960792064666748 4.75914669036865234 0.99527353048324585 0.00543502345681190491 -0.0969590246677398682
-0.699977397918701172 5.49970006942749023 3.47945141792297363 0.144028633832931519 0.973588705062866211 -0.177145779132843018
-0.000300000014249235392 2.72411155700683594 4.75368118286132812 0.996791958808898926 0.00115087884478271008 -0.0800273194909095764
-2.2963554859161377 1.86509978771209717 2.83994865417480469 0.639858484268188477 -0.292667359113693237 -0.710582196712493896
-5.49970006942749023 1.3430168628692627 2.41681241989135742 -0.96491706371307373 -0.108414992690086365 -0.239125743508338928
-0.000300000014249235392 1.58243954181671143 4.86696147918701172 0.995675802230834961 -0.0468589179217815399 -0.0802105739712715149
-1.91093981266021729 3.91876316070556641 0.000300000014249235392 0.0194290187209844589 0.0935271233320236206 -0.995427131652832031
-5.49970006942749023 3.58516335487365723 3.9661412239074707 -0.984902083873748779 0.0431964322924613953 -0.167635828256607056
-0.000300000014249235392 -0.641614913940429688 2.98106503486633301 0.954190194606781006 -0.245820745825767517 -0.170567214488983154
-0.0264804363250732422 5.49970006942749023 4.63443660736083984 0.224914520978927612 0.972573161125183105 -0.0592863038182258606
-0.000300000014249235392 2.02588272094726562 4.82085800170898438 0.991959333419799805 -0.0774835199117660522 -0.100064188241958618
-3.54999852180480957 5.49970006942749023 4.46949148178100586 0.050539012998342514 0.880159139633178711 -0.471980541944503784
-3.55063652992248535 5.49970006942749023 4.47452020645141602 -0.0608530640602111816 0.99323570728302002 -0.0988923236727714539
-3.56165099143981934 5.49970006942749023 2.85633373260498047 0.116607628762722015 0.939090609550476074 0.323282241821289062
-2.82757973670959473 2.56761956214904785 5.49970006942749023 0.236378878355026245 -0.186335116624832153 0.953626871109008789
-5.49970006942749023 3.0912632942199707 4.50463533401489258 -0.995575428009033203 0.0385733135044574738 -0.085682995617389679
-5.49970006942749023 1.10934364795684814 1.79795670509338379 -0.963755249977111816 -0.0728751122951507568 -0.256641626358032227
-5.17389774322509766 5.49970006942749023 3.74802732467651367 -0.443342268466949463 0.886300086975097656 0.133864894509315491
-5.17252683639526367 5.49970006942749023 3.74735021591186523 -0.181218758225440979 0.975692212581634521 -0.123225167393684387
-5.49970006942749023 2.24511957168579102 5.05836200714111328 -0.998020768165588379 -0.0265198294073343277 -0.057018086314201355
-0.000300000014249235392 1.70466291904449463 5.37292098999023438 0.996600627899169922 -0.0817415788769721985 -0.0102679366245865822
-0.000300000014249235392 2.36292576789855957 2.67309451103210449 0.967523872852325439 -0.0371267013251781464 -0.250038176774978638
-0.000300000014249235392 -0.348170280456542969 1.23578274250030518 0.960616588592529297 -0.166620150208473206 -0.222381234169006348
-0.000300000014249235392 2.00222206115722656 0.154370307922363281 0.950904726982116699 -0.0352834798395633698 -0.307465732097625732
-1.18474280834197998 5.49970006942749023 4.26830387115478516 0.0927884131669998169 0.988192975521087646 -0.12192196398973465
-0.000300000014249235392 1.85110092163085938 4.21941328048706055 0.991821646690368652 0.00229443912394344807 -0.127610713243484497
-5.49970006942749023 4.14626836776733398 3.34530401229858398 -0.970592319965362549 0.1130685955286026 -0.212522834539413452
-1.19681417942047119 5.49970006942749023 3.57668948173522949 -0.166569516062736511 0.954864978790283203 0.245941862463951111
-1.19640970230102539 5.49970006942749023 3.57608556747436523 0.0959442406892776489 0.984570741653442383 -0.146339014172554016
-0.000300000014249235392 0.345058441162109375 5.075103759765625 0.966037273406982422 -0.255311667919158936 -0.0398481078445911407
-4.71985244750976562 5.49970006942749023 2.18693733215332031 -0.147116914391517639 0.960737168788909912 -0.235245972871780396
-5.49970006942749023 0.438817739486694336 1.11734879016876221 -0.9630623459815979 -0.0869923233985900879 -0.254839301109313965
-0.000300000014249235392 2.84747314453125 4.34996795654296875 0.990865409374237061 -0.00752069707959890366 -0.134644359350204468
-4.89094305038452148 1.40467154979705811 0.000300000014249235392 -0.121307089924812317 -0.0542625859379768372 -0.991130709648132324
-5.49970006942749023 0.926205039024353027 3.7599029541015625 -0.978089213371276855 -0.160496041178703308 -0.132598787546157837
-0.000300000014249235392 3.68726038932800293 5.17381429672241211 0.985797643661499023 0.165489763021469116 -0.0285652521997690201
-4.52820539474487305 5.49970006942749023 3.97696638107299805 -0.536068618297576904 0.816874146461486816 -0.212948396801948547
-4.52770709991455078 5.49970006942749023 3.97708940505981445 -0.161757245659828186 0.973577022552490234 -0.16119028627872467
-5.49970006942749023 1.20233571529388428 2.31891036033630371 -0.974439918994903564 -0.0695010051131248474 -0.21362660825252533
-3.27783942222595215 4.13287639617919922 3.30029201507568359 -0.0186317265033721924 0.159028664231300354 -0.987098097801208496
-1.12656819820404053 5.49970006942749023 2.83925604820251465 -0.354936301708221436 0.921193361282348633 0.159445717930793762
-1.12620639801025391 5.49970006942749023 2.83896160125732422 0.0773802623152732849 0.975330770015716553 -0.206741675734519958
-3.69711017608642578 2.64060354232788086 3.09245467185974121 -0.610430598258972168 -0.0253941267728805542 -0.791662514209747314
-3.69605898857116699 2.6409294605255127 3.09388494491577148 -0.378391653299331665 0.883176684379577637 -0.277161836624145508
-0.000300000014249235392 3.16881608963012695 4.62385177612304688 0.99412691593170166 0.0685511380434036255 -0.0837404429912567139
-4.6995091438293457 5.49970006942749023 4.68284463882446289 -0.429438084363937378 0.894638776779174805 -0.123306021094322205
-4.69907617568969727 5.49970006942749023 4.68384695053100586 -0.428003013134002686 0.771288514137268066 0.471091657876968384
-4.69853353500366211 5.49970006942749023 4.68307399749755859 -0.142624661326408386 0.986775338649749756 -0.0770232081413269043
-0.000300000014249235392 5.15800666809082031 4.70226287841796875 0.961146831512451172 0.266315221786499023 -0.072614520788192749
-0.000300000014249235392 1.88203573226928711 5.46119594573974609 0.99995499849319458 -0.00945317652076482773 -0.000708097999449819326
-3.51945757865905762 5.49970006942749023 5.27570247650146484 -0.0252412967383861542 0.999541044235229492 -0.0167457833886146545
-0.000300000014249235392 3.30928874015808105 2.5535271167755127 0.974559187889099121 -0.00378931756131350994 -0.224097847938537598
-3.30237317085266113 0.638277053833007812 0.000300000014249235392 -0.0812147185206413269 -0.0839155912399291992 -0.993157744407653809
-3.26498913764953613 4.29600715637207031 5.49970006942749023 -0.22466607391834259 -0.37280002236366272 0.900302886962890625
-3.26486778259277344 4.29621505737304688 5.49970006942749023 0.147869959473609924 0.266599416732788086 0.952396571636199951
-0.000300000014249235392 0.346537351608276367 1.95287394523620605 0.96631324291229248 -0.12298949807882309 -0.226080194115638733
-5.49970006942749023 4.06025981903076172 3.20634031295776367 -0.968808591365814209 0.147549644112586975 -0.199095264077186584
-5.49970006942749023 -0.803793907165527344 3.55176186561584473 -0.956074297428131104 -0.265619188547134399 -0.123969152569770813
-0.000300000014249235392 0.0753452777862548828 1.31331098079681396 0.960202515125274658 -0.161773413419723511 -0.227685034275054932
-0.000300000014249235392 1.49109721183776855 2.50110292434692383 0.970065593719482422 -0.09699249267578125 -0.222632259130477905
-0.000300000014249235392 0.422394275665283203 5.21384239196777344 0.975425839424133301 -0.219482988119125366 -0.019274761900305748
-5.041595458984375 0.180185556411743164 0.000300000014249235392 -0.14571748673915863 -0.327092468738555908 -0.93368983268737793
-5.04156112670898438 0.180250167846679688 0.000300000014249235392 -0.109369315207004547 -0.262067705392837524 -0.958831965923309326
-5.49970006942749023 0.97985374927520752 1.74518537521362305 -0.966008305549621582 -0.117974922060966492 -0.230021342635154724
-3.39708614349365234 2.39100980758666992 0.000300000014249235392 -0.07404308021068573 -0.00992765277624130249 -0.997205615043640137
-2.06363964080810547 3.45783090591430664 0.000300000014249235392 -0.0455737821757793427 -0.102313965559005737 -0.993707656860351562
-2.06360626220703125 3.45789122581481934 0.000300000014249235392 0.0649629831314086914 0.0978433713316917419 -0.993079245090484619
-1.48298549652099609 2.59239077568054199 0.000300000014249235392 0.421515852212905884 -0.476642787456512451 -0.771450638771057129
-3.09760212898254395 4.41812562942504883 1.01849222183227539 -0.841828584671020508 -0.349028527736663818 -0.411708295345306396
-1.70709145069122314 5.49970006942749023 4.06446027755737305 0.0609209276735782623 0.988436460494995117 -0.138859331607818604
-0.000300000014249235392 4.81206464767456055 5.26379871368408203 0.966324150562286377 0.256838977336883545 -0.0158510543406009674
-3.19527411460876465 3.95984339714050293 3.3002922534942627 -0.765639245510101318 0.562585592269897461 -0.311919748783111572
-3.19455695152282715 3.95935297012329102 3.3002922534942627 -0.0640022233128547668 0.167265251278877258 -0.983832240104675293
-5.49970006942749023 0.385959148406982422 3.56889724731445312 -0.967013895511627197 -0.170631960034370422 -0.189126282930374146
-1.91688716411590576 5.49970006942749023 5.40109443664550781 0.108267880976200104 0.993793606758117676 0.0255414620041847229
-1.91732525825500488 5.49970006942749023 5.40100669860839844 -0.40875476598739624 0.909294366836547852 -0.0781229510903358459
-1.91624259948730469 5.49970006942749023 5.4011688232421875 0.137124493718147278 0.990535616874694824 -0.00599974021315574646
-1.11448144912719727 5.49970006942749023 4.33975744247436523 0.596885800361633301 0.802023530006408691 -0.0220368988811969757
-1.11513316631317139 5.49970006942749023 4.33968305587768555 0.120017416775226593 0.98360753059387207 -0.134580612182617188
-0.000300000014249235392 4.38633918762207031 2.06869721412658691 0.968232989311218262 0.111029170453548431 -0.224047452211380005
-5.49970006942749023 1.19403612613677979 4.17234182357788086 -0.973867893218994141 -0.178987056016921997 -0.139802873134613037
-2.86254644393920898 5.49970006942749023 1.71429538726806641 -0.0322416983544826508 0.970786213874816895 -0.237770006060600281
-5.49970006942749023 -0.0187122821807861328 3.40552330017089844 -0.970351755619049072 -0.150957584381103516 -0.188757151365280151
-0.000300000014249235392 4.00419521331787109 5.00221967697143555 0.978239655494689941 0.200951471924781799 -0.0516290292143821716
-0.000300000014249235392 3.56609058380126953 5.40742635726928711 0.993084549903869629 0.11713002622127533 -0.00797689054161310196
-0.000300000014249235392 4.83697319030761719 4.78151893615722656 0.978957295417785645 0.191588640213012695 -0.0702586174011230469
-2.03862619400024414 5.49970006942749023 1.90099310874938965 0.0465269722044467926 0.968124330043792725 -0.24611055850982666
-0.000300000014249235392 2.40659379959106445 2.50469040870666504 0.97295534610748291 -0.0056451740674674511 -0.230924248695373535
-0.134536266326904297 5.49970006942749023 3.31295251846313477 0.140255957841873169 0.974581003189086914 -0.174699723720550537
-0.950573444366455078 5.49970006942749023 3.69153618812561035 -0.535676360130310059 0.463003486394882202 -0.706171691417694092
-0.950109004974365234 5.49970006942749023 3.6919715404510498 0.363935261964797974 0.928944826126098633 -0.0679154619574546814
-5.49970006942749023 -0.503082513809204102 3.69521331787109375 -0.967132508754730225 -0.214064016938209534 -0.137226834893226624
-0.000300000014249235392 2.05651950836181641 5.15101051330566406 0.999585092067718506 0.00336126005277037621 -0.0286054182797670364
-0.000300000014249235392 4.25343704223632812 3.40966129302978516 0.972230315208435059 0.0999966412782669067 -0.211586445569992065
-2.86922907829284668 5.49970006942749023 2.719390869140625 0.0246763806790113449 0.979378342628479004 -0.200521856546401978
-3.46657752990722656 5.49970006942749023 4.25971698760986328 -0.0515316762030124664 0.987546086311340332 -0.148651435971260071
-0.000300000014249235392 0.808345198631286621 1.22572231292724609 0.961080431938171387 -0.0932010039687156677 -0.260072916746139526
-0.000300000014249235392 2.01095676422119141 3.04889512062072754 0.980672478675842285 -0.0590599142014980316 -0.186529666185379028
-0.000300000014249235392 3.68603873252868652 4.55160713195800781 0.991664588451385498 0.0609028153121471405 -0.113543219864368439
-5.49970006942749023 4.66993856430053711 3.94349527359008789 -0.978453636169433594 0.163792431354522705 -0.125700280070304871
-5.49970006942749023 4.31345176696777344 4.44186878204345703 -0.983119785785675049 0.141267105937004089 -0.116271235048770905
-0.000300000014249235392 -0.261731386184692383 5.02080535888671875 0.974397420883178711 -0.220022797584533691 -0.0462548471987247467
-5.49970006942749023 3.24355745315551758 4.22088766098022461 -0.985426247119903564 0.120360769331455231 -0.120201177895069122
-5.49970006942749023 0.594581842422485352 2.18592739105224609 -0.956644058227539062 -0.135567501187324524 -0.257785826921463013
-2.4566657543182373 3.21658205986022949 0.000300000014249235392 0.123411141335964203 0.146514564752578735 -0.981480062007904053
-2.45673108100891113 3.21652317047119141 0.000300000014249235392 0.038119245320558548 0.0705528333783149719 -0.996779382228851318
-0.000300000014249235392 2.07095670700073242 1.64510607719421387 0.961148262023925781 0.0170796066522598267 -0.275503754615783691
-0.000300000014249235392 4.12559032440185547 3.32045507431030273 0.967033028602600098 0.190104782581329346 -0.169432029128074646
-0.000300000014249235392 1.30459320545196533 2.84818744659423828 0.962082028388977051 -0.135884970426559448 -0.236502334475517273
-3.54416656494140625 5.49970006942749023 3.42558026313781738 -0.0290404856204986572 0.984851241111755371 -0.170951724052429199
-0.000300000014249235392 -0.371610879898071289 4.25020027160644531 0.981237173080444336 -0.165333271026611328 -0.099188484251499176
-4.02500009536743164 5.49970006942749023 4.13734197616577148 0.429663747549057007 0.902890563011169434 0.0133273797109723091
-4.02605390548706055 5.49970006942749023 4.13713455200195312 -0.0278795883059501648 0.991687536239624023 -0.125612437725067139
-2.97225451469421387 3.22966861724853516 3.3002924919128418 0.0774758681654930115 0.0916710942983627319 -0.992770731449127197
-0.000300000014249235392 4.70268058776855469 4.59494113922119141 0.979092001914978027 0.183948531746864319 -0.0868433564901351929
-1.97786808013916016 5.49970006942749023 0.0628964900970458984 0.0158480685204267502 0.962417840957641602 -0.271109908819198608
-0.000300000014249235392 1.47279298305511475 1.40338540077209473 0.954278826713562012 -0.106597214937210083 -0.279264777898788452
-4.79591941833496094 5.49970006942749023 4.06944751739501953 -0.144830182194709778 0.982632696628570557 -0.116005100309848785
-5.49970006942749023 0.589655160903930664 5.01360511779785156 -0.98537147045135498 -0.159355834126472473 -0.0604038611054420471
-5.49970006942749023 1.74930942058563232 3.50902414321899414 -0.986076712608337402 -0.0523687973618507385 -0.157829776406288147
-2.87341094017028809 3.68220925331115723 3.3002922534942627 -0.029600122943520546 0.0365205593407154083 -0.998894393444061279
-3.62218427658081055 5.49970006942749023 3.57730293273925781 -0.147941827774047852 0.971269071102142334 -0.186412200331687927
-5.49970006942749023 3.2939457893371582 4.53246402740478516 -0.990918993949890137 0.0822578445076942444 -0.106362804770469666
-5.49970006942749023 3.88356208801269531 4.02276897430419922 -0.988808393478393555 0.0553405694663524628 -0.138547360897064209
-0.000300000014249235392 2.16794729232788086 0.5924224853515625 0.963584661483764648 -0.0352324768900871277 -0.265071988105773926
-3.90216302871704102 5.49970006942749023 3.84009313583374023 -0.186039268970489502 0.917435705661773682 -0.351711541414260864
-3.90212845802307129 5.49970006942749023 3.84014987945556641 -0.0856556445360183716 0.978009223937988281 -0.190160199999809265
-0.900310397148132324 5.49970006942749023 3.69351625442504883 0.102063238620758057 0.982474088668823242 -0.155973777174949646
-1.4718010425567627 5.49970006942749023 4.57425928115844727 0.382076919078826904 0.924013853073120117 -0.0146813774481415749
-4.67312431335449219 5.49970006942749023 4.28327608108520508 -0.128460213541984558 0.985465109348297119 -0.111159324645996094
-3.80217790603637695 5.49970006942749023 4.4229273796081543 -0.111829936504364014 0.989957332611083984 -0.0864782258868217468
-0.193819046020507812 3.99315834045410156 0.000300000014249235392 -0.046026669442653656 0.957752227783203125 -0.283887624740600586
-0.193814992904663086 3.99219870567321777 0.000300000014249235392 -0.144759640097618103 0.169531241059303284 -0.974835216999053955
-0.50818634033203125 5.49970006942749023 5.05363941192626953 0.251233726739883423 0.967369735240936279 -0.0328235030174255371
-5.49970006942749023 1.187752366065979 4.79964351654052734 -0.987984359264373779 -0.130913123488426208 -0.0821498781442642212
-5.49970006942749023 4.31450891494750977 3.97246408462524414 -0.982266545295715332 0.12228035181760788 -0.142126187682151794
-2.35238885879516602 5.49970006942749023 4.77837324142456055 0.0605286583304405212 0.994895219802856445 -0.0807445496320724487
-2.14551997184753418 5.49970006942749023 4.66161823272705078 0.0872797966003417969 0.992090821266174316 -0.0902105420827865601
-0.000300000014249235392 4.02532052993774414 4.45697736740112305 0.987250924110412598 0.116147555410861969 -0.108835883438587189
-5.49970006942749023 3.92075824737548828 3.68326950073242188 -0.969177961349487305 0.165247857570648193 -0.182721585035324097
-2.381011962890625 5.49970006942749023 4.14031648635864258 -0.156637474894523621 0.868171215057373047 0.470896482467651367
-2.38097143173217773 5.49970006942749023 4.14011287689208984 -0.0447024181485176086 0.989790797233581543 -0.135335922241210938
-0.000300000014249235392 2.28386497497558594 5.242095947265625 0.998664498329162598 0.0432571843266487122 -0.0282495468854904175
-5.49970006942749023 1.10876119136810303 4.72011041641235352 -0.994054079055786133 -0.0867355763912200928 -0.0658283829689025879
-5.49970006942749023 -0.786468267440795898 3.92663288116455078 -0.973907411098480225 -0.20360526442527771 -0.100245609879493713
-5.10022878646850586 -0.180266618728637695 0.000300000014249235392 -0.108762897551059723 -0.0956136882305145264 -0.989458739757537842
-0.840340852737426758 5.19150161743164062 0.000300000014249235392 0.114860616624355316 0.100739158689975739 -0.988260388374328613
-3.58711624145507812 5.49970006942749023 4.89550113677978516 -0.382483363151550293 0.913494110107421875 0.138690277934074402
-3.5864710807800293 5.49970006942749023 4.89513397216796875 -0.109045036137104034 0.992444396018981934 -0.0562418997287750244
-0.18444514274597168 5.49970006942749023 1.12803757190704346 0.138829797506332397 0.965088367462158203 -0.2221049964427948
-2.04223823547363281 5.49970006942749023 4.10889148712158203 0.0725612267851829529 0.983006596565246582 -0.168620198965072632
-2.46405744552612305 -0.114223241806030273 5.49970006942749023 -0.165775522589683533 -0.507840156555175781 0.845350027084350586
-3.88262224197387695 5.49970006942749023 5.19075965881347656 -0.0736205801367759705 0.996801614761352539 -0.0310871601104736328
-5.49970006942749023 0.660046577453613281 2.62924075126647949 -0.990331649780273438 -0.136181667447090149 -0.0264137983322143555
-0.000300000014249235392 0.972095131874084473 3.74423742294311523 0.97340625524520874 -0.124448098242282867 -0.192335233092308044
-1.81023681163787842 1.7199026346206665 3.04897022247314453 -0.0524764619767665863 -0.0974724963307380676 -0.99385380744934082
-0.000300000014249235392 1.36699044704437256 3.52773523330688477 0.978523731231689453 -0.131284564733505249 -0.158920034766197205
-0.000300000014249235392 2.84389352798461914 3.65648794174194336 0.984601616859436035 -0.0440261662006378174 -0.16917833685874939
-0.000300000014249235392 3.32951045036315918 5.35014820098876953 0.999492049217224121 0.0294883865863084793 -0.0120881423354148865
-0.000300000014249235392 -0.37960505485534668 0.733698606491088867 0.952519476413726807 -0.144820168614387512 -0.267831563949584961
-1.49468326568603516 5.49970006942749023 4.12530422210693359 -0.394644051790237427 0.904828071594238281 0.15981900691986084
-3.28519964218139648 5.49970006942749023 2.73599696159362793 -0.0840517356991767883 0.968935310840606689 -0.232593223452568054
-5.49970006942749023 0.44496917724609375 4.88161754608154297 -0.98595726490020752 -0.150085672736167908 -0.073229566216468811
-0.000300000014249235392 2.79237461090087891 1.44546496868133545 0.957774937152862549 0.0632247403264045715 -0.280481129884719849
-1.83772444725036621 5.49970006942749023 4.34274816513061523 0.0243283696472644806 0.989777922630310059 -0.140526503324508667
-0.000300000014249235392 1.52752006053924561 5.14889669418334961 0.994684278964996338 -0.0980401411652565002 -0.0314833261072635651
-5.49970006942749023 0.838310718536376953 4.56516456604003906 -0.971400260925292969 -0.211427882313728333 -0.108072541654109955
-3.81579494476318359 0.752459406852722168 0.000300000014249235392 -0.0643500760197639465 -0.142767339944839478 -0.987662136554718018
-0.000300000014249235392 1.5959545373916626 0.340466976165771484 0.95642244815826416 -0.0951010733842849731 -0.276064693927764893
-2.01790690422058105 5.49970006942749023 3.24468779563903809 -0.0169340167194604874 0.981362581253051758 -0.1914176344871521
-5.49970006942749023 0.324735879898071289 1.69808697700500488 -0.960178852081298828 -0.168449059128761292 -0.222893163561820984
-0.000300000014249235392 4.01483821868896484 4.04891204833984375 0.988343536853790283 0.101310543715953827 -0.113636001944541931
-0.000300000014249235392 4.12980985641479492 4.97610855102539062 0.98886418342590332 0.134882926940917969 -0.0628824010491371155
-1.25424015522003174 5.49970006942749023 5.26019954681396484 0.19686126708984375 0.945982158184051514 -0.25761076807975769
-1.25428223609924316 5.49970006942749023 5.26027488708496094 0.0678412988781929016 0.997459173202514648 -0.0217430219054222107
-4.1117558479309082 2.43810725212097168 0.000300000014249235392 -0.115252546966075897 -0.00225622556172311306 -0.993333578109741211
-3.75480294227600098 1.6422353982925415 0.000300000014249235392 -0.100370392203330994 -0.0439842380583286285 -0.99397742748260498
-5.49970006942749023 3.00449490547180176 4.25747871398925781 -0.992790102958679199 0.0625143870711326599 -0.102272897958755493
-0.000300000014249235392 1.48685777187347412 2.13867330551147461 0.963355183601379395 -0.0700630098581314087 -0.258916646242141724
-5.49970006942749023 2.25440740585327148 3.21181774139404297 -0.967770814895629883 -0.0323268063366413116 -0.249749079346656799
-3.36892461776733398 5.49970006942749023 4.33693599700927734 -0.305572718381881714 0.724385678768157959 -0.617973089218139648
-3.36418509483337402 5.49970006942749023 4.34775972366333008 -0.059937845915555954 0.993360996246337891 -0.0981896519660949707
-5.49970006942749023 4.46852922439575195 4.96735382080078125 -0.981846630573272705 0.184162244200706482 -0.0454028397798538208
-0.000300000014249235392 1.64293491840362549 2.35573005676269531 0.960291922092437744 -0.0671959519386291504 -0.270784169435501099
-3.76962518692016602 5.49970006942749023 2.5196220874786377 -0.322302132844924927 0.892505764961242676 -0.315522909164428711
-3.76878738403320312 5.49970006942749023 2.52023696899414062 -0.0654701665043830872 0.976841092109680176 -0.203703239560127258
-0.000300000014249235392 0.850021123886108398 2.07233858108520508 0.964274883270263672 -0.129470348358154297 -0.231108725070953369
-0.000300000014249235392 3.84184837341308594 2.22842836380004883 0.971190452575683594 0.0768527314066886902 -0.225571885704994202
-2.95231318473815918 5.49970006942749023 5.05957794189453125 0.0367949865758419037 0.748193502426147461 0.66245955228805542
-3.05002784729003906 3.51331567764282227 3.3002922534942627 0.00360250705853104591 0.687645912170410156 -0.726037263870239258
-3.0496819019317627 3.50918364524841309 3.3002922534942627 0.415492475032806396 0.0958897173404693604 -0.904528141021728516
-5.49970006942749023 -0.529276371002197266 3.10000228881835938 -0.960264086723327637 -0.201209187507629395 -0.193410322070121765
-0.000300000014249235392 -0.781203508377075195 4.64382505416870117 0.970884919166564941 -0.226850315928459167 -0.0769501030445098877
-3.10538196563720703 5.49970006942749023 4.28432703018188477 -0.471172600984573364 0.858915448188781738 0.200650572776794434
-3.10495328903198242 5.49970006942749023 4.28405618667602539 -0.0562495887279510498 0.99388730525970459 -0.094994671642780304
-0.000300000014249235392 1.81378602981567383 4.32490158081054688 0.982307553291320801 -0.0817455947399139404 -0.16849181056022644
-0.000300000014249235392 3.17709970474243164 4.01861000061035156 0.985724925994873047 0.0688767433166503906 -0.153630554676055908
-5.49970006942749023 4.69167041778564453 4.49635696411132812 -0.975096404552459717 0.207574248313903809 -0.0781012624502182007
-3.52186393737792969 5.49970006942749023 4.28604364395141602 -0.198732450604438782 0.979930281639099121 0.0155540267005562782
-3.52113533020019531 5.49970006942749023 4.28622913360595703 0.838685095310211182 0.416951179504394531 0.350369811058044434
-3.52175641059875488 5.49970006942749023 4.28593969345092773 -0.058449331670999527 0.990630865097045898 -0.123426690697669983
-0.000300000014249235392 5.05286550521850586 2.1067652702331543 0.966704010963439941 0.126090586185455322 -0.222675472497940063
-0.000300000014249235392 1.2694472074508667 4.01964664459228516 0.986955046653747559 -0.106638707220554352 -0.120614409446716309
-5.49970006942749023 0.935321450233459473 4.27722454071044922 -0.976776242256164551 -0.189774245023727417 -0.0994676351547241211
-0.000300000014249235392 3.61358499526977539 3.0278010368347168 0.981439888477325439 0.0768095403909683228 -0.175715729594230652
-3.39908480644226074 -0.148767709732055664 0.000300000014249235392 -0.457028031349182129 -0.056878700852394104 -0.887631773948669434
-3.39753842353820801 -0.148766756057739258 0.000300000014249235392 -0.0195986013859510422 -0.138697907328605652 -0.990140676498413086
-1.67229545116424561 5.49970006942749023 5.13083362579345703 0.0892930999398231506 0.983260154724121094 -0.158827707171440125
-1.67228376865386963 5.49970006942749023 5.13086891174316406 0.128380119800567627 0.99072873592376709 -0.0444419942796230316
-5.49970006942749023 0.830885052680969238 1.96303164958953857 -0.979362785816192627 -0.197191819548606873 0.0443154796957969666
-2.46196317672729492 2.22235202789306641 1.65029633045196533 -0.00643851980566978455 -0.0865043997764587402 -0.996230602264404297
-5.49970006942749023 1.12582814693450928 5.14935016632080078 -0.992246031761169434 -0.11861727386713028 -0.037117883563041687
-5.49970006942749023 4.13199520111083984 3.82744574546813965 -0.967023313045501709 0.174644365906715393 -0.185378402471542358
-2.47128772735595703 5.49970006942749023 5.04838752746582031 -0.0206777863204479218 0.998755216598510742 -0.0453903526067733765
-2.78444981575012207 3.40863800048828125 0.164361119270324707 -0.492689371109008789 -0.181194901466369629 0.851131916046142578
-2.78443360328674316 3.40858554840087891 0.163769721984863281 -0.816727042198181152 -0.479351460933685303 -0.321214973926544189
-1.332039475440979 5.49970006942749023 2.49523496627807617 0.0600394159555435181 0.967608928680419922 -0.245210394263267517
-5.49970006942749023 1.76750719547271729 4.22173976898193359 -0.988582968711853027 -0.0625252574682235718 -0.137092024087905884
-1.609519362449646 5.49970006942749023 4.55846977233886719 0.117288924753665924 0.990473508834838867 -0.0721483603119850159
-0.000300000014249235392 0.419754981994628906 4.15442085266113281 0.981976747512817383 -0.160434797406196594 -0.0999107062816619873
-2.09112358093261719 1.76491892337799072 2.99716305732727051 0.362576544284820557 -0.168528392910957336 -0.916589617729187012
-2.88374781608581543 3.61571025848388672 3.3002922534942627 -0.468171030282974243 0.025727294385433197 -0.883263230323791504
-2.883270263671875 3.61584162712097168 3.3002922534942627 0.0530482418835163116 0.203827723860740662 -0.977568387985229492
-0.000300000014249235392 2.32031583786010742 3.56253337860107422 0.982956886291503906 0.0548155531287193298 -0.175473302602767944
-3.87250971794128418 5.49970006942749023 1.98677003383636475 -0.0832418948411941528 0.959287762641906738 -0.269884645938873291
-0.000300000014249235392 4.56873989105224609 1.369148850440979 0.963253617286682129 0.148486316204071045 -0.223817363381385803
-3.09519171714782715 5.49970006942749023 4.2547764778137207 -0.907103538513183594 0.25362434983253479 0.335913509130477905
-3.09413003921508789 5.49970006942749023 4.25433874130249023 -0.0362299047410488129 0.990409970283508301 -0.133324578404426575
-0.164552927017211914 5.46953725814819336 0.000300000014249235392 0.1472339928150177 0.122941218316555023 -0.981431365013122559
-3.54468655586242676 2.42157793045043945 0.000300000014249235392 0.487958520650863647 -0.466669559478759766 -0.737642168998718262
-3.54594755172729492 2.42275452613830566 0.000300000014249235392 -0.0286946650594472885 -0.012416347861289978 -0.999511063098907471
-0.000300000014249235392 1.66972362995147705 4.45187711715698242 0.990579605102539062 -0.0976650267839431763 -0.0959871560335159302
-3.02017736434936523 1.96156001091003418 5.49970006942749023 0.174237087368965149 -0.304617434740066528 0.936402380466461182
-3.01816511154174805 3.69030451774597168 3.3002922534942627 -0.145715221762657166 0.144853129982948303 -0.978664636611938477
-0.000300000014249235392 3.18854641914367676 4.57614564895629883 0.993101835250854492 -0.0123799946159124374 -0.116599529981613159
-4.99483489990234375 2.57290768623352051 0.000300000014249235392 0.536690354347229004 -0.392580896615982056 -0.746889293193817139
-4.99601602554321289 2.57375025749206543 0.000300000014249235392 -0.114893503487110138 0.0553848631680011749 -0.991832613945007324
-0.000300000014249235392 3.0570838451385498 5.2205653190612793 0.996410965919494629 0.0778505429625511169 -0.0332311913371086121
-4.84574317932128906 5.49970006942749023 4.5004277229309082 -0.194653898477554321 0.977162718772888184 -0.0852220803499221802
-2.78952169418334961 1.67560791969299316 0.000300000014249235392 0.687065541744232178 -0.0591855794191360474 -0.724180936813354492
-2.81601214408874512 1.67691373825073242 0.000300000014249235392 -0.0828404650092124939 -0.950467765331268311 -0.29958033561706543
-2.81593012809753418 1.67785298824310303 0.000300000014249235392 -0.00323504279367625713 -0.0403531230986118317 -0.999180197715759277
-5.49970006942749023 0.968323826789855957 5.44016027450561523 -0.994748890399932861 -0.102287717163562775 -0.00343651813454926014
-0.000300000014249235392 2.02712440490722656 3.5780642032623291 0.980389654636383057 -0.0217795688658952713 -0.195861458778381348
-0.229688405990600586 5.49970006942749023 2.58126950263977051 0.17488822340965271 0.962537109851837158 -0.207210764288902283
-1.83754658699035645 2.54754781723022461 0.557682931423187256 -0.205153882503509521 -0.925575375556945801 -0.318154066801071167
-2.26129150390625 -0.229454755783081055 0.000300000014249235392 0.0473201125860214233 -0.173273235559463501 -0.983736276626586914
-2.34559941291809082 5.49970006942749023 2.42169857025146484 -0.113128714263439178 0.833622217178344727 0.540625452995300293
-1.83899044990539551 3.6511988639831543 0.000300000014249235392 0.192352771759033203 0.853751242160797119 -0.483848243951797485
-1.83922398090362549 3.65078282356262207 0.000300000014249235392 -0.33590283989906311 0.331972867250442505 -0.881455183029174805
-1.83639442920684814 3.64914321899414062 0.000300000014249235392 0.845119953155517578 0.392641454935073853 -0.362773895263671875
-1.83708322048187256 3.64884805679321289 0.000300000014249235392 0.0327939614653587341 0.0981124565005302429 -0.994634866714477539
-3.44183659553527832 3.71765375137329102 3.3002922534942627 -0.0824010595679283142 0.0679356008768081665 -0.99428105354309082
-2.01642894744873047 1.30984950065612793 2.92564105987548828 0.284282863140106201 0.464431881904602051 -0.838740944862365723
-5.49970006942749023 1.39355528354644775 2.10368728637695312 -0.963217198848724365 -0.0827771499752998352 -0.255657106637954712
-3.67982912063598633 2.90847253799438477 3.3002924919128418 -0.00301948492415249348 -0.419786214828491211 -0.90761798620223999
-3.67990684509277344 2.90958428382873535 3.3002924919128418 -0.0602635256946086884 0.128264650702476501 -0.989907264709472656
-0.000300000014249235392 2.72959709167480469 4.77868890762329102 0.994002461433410645 -0.0270219352096319199 -0.105965815484523773
-2.24743151664733887 3.14221048355102539 5.49970006942749023 0.0760585963726043701 0.127368852496147156 0.988934874534606934
-2.24718451499938965 3.14207744598388672 5.49970006942749023 0.363633900880813599 -0.0450714528560638428 0.930450916290283203
-5.49970006942749023 4.98584175109863281 0.56322026252746582 -0.891612768173217773 -0.102929048240184784 -0.44094473123550415
-2.90192008018493652 5.49970006942749023 2.76530838012695312 0.814324259757995605 0.194171801209449768 0.54696732759475708
-2.90316295623779297 5.49970006942749023 2.76438999176025391 0.048679891973733902 0.970124006271362305 -0.237675607204437256
-2.95152473449707031 5.49970006942749023 3.97591066360473633 0.0161138977855443954 0.990302205085754395 -0.137991726398468018
-5.14789104461669922 5.49970006942749023 4.59724855422973633 -0.115846462547779083 0.779431760311126709 0.615683138370513916
-5.49970006942749023 5.30666303634643555 2.90394735336303711 -0.202471256256103516 -0.11097998172044754 -0.972979307174682617
-5.14789009094238281 5.49970006942749023 4.59630918502807617 -0.213162884116172791 0.973697662353515625 -0.0804639831185340881
-0.000300000014249235392 4.77994918823242188 4.76961612701416016 0.974587976932525635 0.216846764087677002 -0.0561750084161758423
-5.49970006942749023 3.54175519943237305 4.31043529510498047 -0.983743548393249512 0.116005666553974152 -0.137081220746040344
-2.65604662895202637 1.19175946712493896 1.65029621124267578 -0.00233580986969172955 -0.102342046797275543 -0.994746506214141846
-3.16947841644287109 3.85967278480529785 3.3002922534942627 -0.0931519344449043274 0.128386244177818298 -0.987339615821838379
-4.25743865966796875 5.49970006942749023 4.26512861251831055 -0.488478660583496094 0.76436537504196167 -0.420873016119003296
-5.49970006942749023 2.73116016387939453 3.3951413631439209 -0.981047630310058594 0.00545583805069327354 -0.193689972162246704
-0.000300000014249235392 5.00919151306152344 4.65062952041625977 0.979773044586181641 0.190214917063713074 -0.0621525608003139496
-1.85129392147064209 3.07275962829589844 0.000300000014249235392 0.0787228196859359741 0.0693813636898994446 -0.994479179382324219
-5.49970006942749023 1.57475554943084717 0.99634397029876709 -0.956936359405517578 -0.0838803201913833618 -0.277915149927139282
-2.20331168174743652 5.49970006942749023 1.2504960298538208 -0.591970384120941162 0.754692435264587402 0.282861024141311646
-2.6866753101348877 3.09344935417175293 1.33918750286102295 -0.917513132095336914 -0.231085419654846191 -0.323680609464645386
-0.000300000014249235392 3.44059467315673828 4.6720280647277832 0.986499309539794922 0.128959253430366516 -0.100937642157077789
-5.49970006942749023 2.5981595516204834 3.75364089012145996 -0.980453252792358398 0.0269686188548803329 -0.194894611835479736
-5.49970006942749023 1.37356460094451904 4.1770930290222168 -0.982616782188415527 -0.132826924324035645 -0.129696756601333618
-0.780689239501953125 5.49970006942749023 3.87012529373168945 0.189385488629341125 0.974558353424072266 -0.119871057569980621
-3.80650591850280762 1.82375097274780273 0.000300000014249235392 -0.232952013611793518 -0.145984426140785217 -0.961468636989593506
-3.80645322799682617 1.82377529144287109 0.000300000014249235392 -0.0663783401250839233 -0.0703746676445007324 -0.995309591293334961
-0.000300000014249235392 2.85700273513793945 2.68000888824462891 0.97207951545715332 -0.0521547123789787292 -0.228782132267951965
-0.127913475036621094 4.9890437126159668 0.000300000014249235392 0.127620652318000793 0.0832747817039489746 -0.988320887088775635
-3.90977334976196289 -0.843947410583496094 0.000300000014249235392 -0.0881356075406074524 -0.186294898390769958 -0.978532671928405762
-5.49970006942749023 4.13060951232910156 4.64222526550292969 -0.984275102615356445 0.152768597006797791 -0.0886805951595306396
-3.35067105293273926 3.81370091438293457 3.3002922534942627 -0.791109919548034668 -0.544455528259277344 -0.278771042823791504
-3.35004162788391113 3.81446433067321777 3.3002922534942627 -0.537606358528137207 0.428719192743301392 -0.726071059703826904
-3.3468012809753418 3.81191825866699219 3.3002922534942627 -0.0400279797613620758 0.0829491317272186279 -0.995749533176422119
-5.49970006942749023 3.82187604904174805 5.41086483001708984 -0.979355573654174805 0.202040165662765503 -0.00649994146078824997
-3.61949753761291504 0.146290779113769531 0.000300000014249235392 0.581999540328979492 -0.193398043513298035 -0.789856791496276855
-3.619842529296875 0.146421670913696289 0.000300000014249235392 0.456269651651382446 -0.134233921766281128 -0.87965857982635498
-3.65441036224365234 0.156907558441162109 0.000300000014249235392 -0.581865489482879639 0.342752546072006226 -0.737531781196594238
-3.65295195579528809 0.155905723571777344 0.000300000014249235392 -0.0337008684873580933 -0.169461816549301147 -0.984960377216339111
-4.79306459426879883 0.285757064819335938 0.000300000014249235392 -0.0332477502524852753 0.00286684231832623482 -0.999442994594573975
-4.79311037063598633 0.285640954971313477 0.000300000014249235392 -0.092585347592830658 -0.150883853435516357 -0.984206259250640869
-1.96941089630126953 5.49970006942749023 2.32423090934753418 0.114584147930145264 0.969791293144226074 -0.215349078178405762
-0.000300000014249235392 4.10000419616699219 2.36255216598510742 0.759622454643249512 -0.323167681694030762 -0.564390242099761963
-0.993402957916259766 5.49970006942749023 4.80692863464355469 0.506171345710754395 0.762940466403961182 0.40213477611541748
-0.993530035018920898 5.49970006942749023 4.8066258430480957 0.211087942123413086 0.880107402801513672 -0.425267845392227173
-0.995762467384338379 5.49970006942749023 4.81144475936889648 0.137526914477348328 0.989278197288513184 -0.049142010509967804
-5.49970006942749023 1.63197481632232666 3.24592065811157227 -0.980567336082458496 -0.0622877553105354309 -0.186031773686408997
-0.665771484375 5.30544948577880859 0.000300000014249235392 0.136558249592781067 0.115726850926876068 -0.983849167823791504
-0.000300000014249235392 0.816741943359375 5.04993057250976562 0.995554089546203613 -0.0844384133815765381 -0.0417397283017635345
-5.49970006942749023 4.40004253387451172 3.4607994556427002 -0.966212272644042969 0.193788006901741028 -0.16994127631187439
-1.58001399040222168 5.49970006942749023 3.17734026908874512 0.180164426565170288 0.958139538764953613 -0.222506821155548096
-1.58011877536773682 5.49970006942749023 3.17737793922424316 0.0497514680027961731 0.981946706771850586 -0.182497650384902954
-1.83081698417663574 5.49970006942749023 4.99343109130859375 0.0546093657612800598 0.996555089950561523 -0.0624158643186092377
-2.69204854965209961 3.05571365356445312 3.3002924919128418 0.0417697019875049591 0.0565404370427131653 -0.997526168823242188
-0.000300000014249235392 0.730872392654418945 4.43606710433959961 0.979137659072875977 -0.186143100261688232 -0.0814874768257141113
-0.000300000014249235392 -0.257036924362182617 4.73414182662963867 0.973826944828033447 -0.220324695110321045 -0.0558393523097038269
-2.88222575187683105 3.72383236885070801 2.58071994781494141 -0.927437663078308105 -0.206363782286643982 -0.311886638402938843
-0.000300000014249235392 1.94249081611633301 5.03566789627075195 0.995314717292785645 -0.0759002789855003357 -0.0598976537585258484
-0.000300000014249235392 3.09819960594177246 3.78812742233276367 0.984805524349212646 0.0658036991953849792 -0.160710796713829041
-5.49970006942749023 3.07127261161804199 4.24471330642700195 -0.987467765808105469 0.0570482797920703888 -0.147149354219436646
-0.000300000014249235392 3.65800213813781738 2.25519943237304688 0.970953702926635742 0.105626814067363739 -0.214690178632736206
-5.49970006942749023 3.17923164367675781 4.51461505889892578 -0.987287342548370361 0.122144028544425964 -0.101707890629768372
-5.49970006942749023 3.62509775161743164 4.63761138916015625 -0.997531652450561523 0.0392998382449150085 0.0581890903413295746
-3.38338398933410645 3.21552491188049316 3.3002924919128418 -0.0575517602264881134 0.0425343476235866547 -0.997435986995697021
-2.00169706344604492 3.241455078125 0.000300000014249235392 0.0785838216543197632 -0.203635156154632568 -0.975887954235076904
-2.00178623199462891 3.24142122268676758 0.000300000014249235392 -0.202178597450256348 -0.300354689359664917 -0.932153880596160889
-2.0013573169708252 3.24199461936950684 0.000300000014249235392 0.046993304044008255 0.0231465473771095276 -0.998626947402954102
-3.13448500633239746 4.53702259063720703 1.02219891548156738 -0.849091649055480957 0.134025022387504578 -0.51096045970916748
-3.13445639610290527 4.53693008422851562 1.02230691909790039 -0.949746370315551758 -0.12718452513217926 -0.286017388105392456
-4.17809009552001953 5.49970006942749023 4.35474967956542969 0.721899688243865967 0.563163042068481445 -0.402129620313644409
-4.17849826812744141 5.49970006942749023 4.35482025146484375 -0.070825628936290741 0.899814248085021973 -0.430485844612121582
-0.000300000014249235392 0.0408015251159667969 5.34672641754150391 0.967560291290283203 -0.252310574054718018 -0.0128997517749667168
-0.000300000014249235392 2.69661712646484375 4.70928239822387695 0.99326324462890625 -0.0328834317624568939 -0.111115776002407074
-0.000300000014249235392 5.07813072204589844 5.23342227935791016 0.980468988418579102 0.195366650819778442 -0.0226354766637086868
-0.000300238432828336954 2.83260393142700195 0.472671270370483398 0.981179773807525635 0.0227613653987646103 0.19175054132938385
-2.41692233085632324 2.77647852897644043 0.000300000014249235392 0.515049874782562256 -0.150121808052062988 -0.843911707401275635
-2.41741204261779785 2.77663898468017578 0.000300000014249235392 0.0677138715982437134 0.00434438837692141533 -0.997695267200469971
-0.000300000014249235392 3.50100803375244141 0.143596410751342773 0.957651138305664062 0.0772790759801864624 -0.277366518974304199
-5.49970006942749023 2.60920095443725586 4.17462062835693359 -0.992030620574951172 -0.0379686206579208374 -0.120139367878437042
-0.000300000014249235392 0.810247182846069336 0.765792608261108398 0.955600738525390625 -0.144645869731903076 -0.256719022989273071
-0.000300000014249235392 -0.00503611564636230469 0.210088014602661133 0.95323491096496582 -0.128765925765037537 -0.273427397012710571
-5.49970006942749023 1.32087528705596924 3.81743359565734863 -0.983290553092956543 -0.0327139571309089661 -0.179079815745353699
-0.000300000014249235392 3.926666259765625 2.83768653869628906 0.963395595550537109 0.141048192977905273 -0.227978691458702087
-5.49970006942749023 2.03371095657348633 2.32432103157043457 -0.966742098331451416 -0.0726946145296096802 -0.245204240083694458
-0.000300000014249235392 3.88822603225708008 4.76819610595703125 0.995736479759216309 0.0551281534135341644 -0.0739569738507270813
-0.000300000014249235392 5.17008686065673828 1.96095585823059082 0.982307851314544678 -0.0760073214769363403 -0.171155214309692383
-2.87801861763000488 5.49970006942749023 2.70336580276489258 0.205468013882637024 0.953121185302734375 0.222132667899131775
-2.87652993202209473 5.49970006942749023 2.7030479907989502 0.671387314796447754 0.735679149627685547 0.0895280987024307251
-2.87835979461669922 5.49970006942749023 2.70259666442871094 -0.00610609957948327065 0.964019656181335449 -0.265760540962219238
-0.000300000014249235392 3.00258016586303711 3.93781876564025879 0.982662796974182129 0.00931959319859743118 -0.185167461633682251
-2.57746291160583496 2.13839006423950195 1.5117800235748291 0.641462981700897217 0.758565962314605713 -0.114467956125736237
-2.57766199111938477 2.13772320747375488 1.51176834106445312 0.901802182197570801 -0.300569087266921997 -0.310500919818878174
-0.000300000014249235392 1.90308582782745361 4.47242450714111328 0.993093729019165039 -0.0414404571056365967 -0.109760455787181854
-0.000300000014249235392 2.93135976791381836 3.03873705863952637 0.978290200233459473 0.0810264423489570618 -0.190742745995521545
-0.000300000014249235392 3.19771480560302734 4.23579025268554688 0.992534518241882324 -0.000335971591994166374 -0.121962562203407288
-5.49970006942749023 3.18834900856018066 3.87921953201293945 -0.982946515083312988 0.119665361940860748 -0.13962903618812561
-2.2760317325592041 3.15110278129577637 0.000300000014249235392 -0.013460647314786911 0.0565523840487003326 -0.998308837413787842
-5.36194324493408203 5.49970006942749023 1.8093116283416748 0.216752752661705017 0.952768206596374512 -0.212722510099411011
-5.49970006942749023 5.44175910949707031 1.35334575176239014 -0.287147670984268188 -0.120736405253410339 -0.950246751308441162
-5.36225318908691406 5.49970006942749023 1.80928754806518555 -0.172083586454391479 0.954470157623291016 -0.243667259812355042
-1.87204670906066895 5.49970006942749023 5.38670444488525391 0.170593336224555969 0.985304117202758789 -0.00858247000724077225
-0.000300000014249235392 3.1882929801940918 3.84513473510742188 0.98841094970703125 0.076651446521282196 -0.131027981638908386
-1.00317239761352539 5.49970006942749023 1.0731809139251709 0.0960825681686401367 0.967383146286010742 -0.234388440847396851
-5.49970006942749023 2.47174263000488281 4.09267902374267578 -0.988743305206298828 -0.0695855095982551575 -0.132455065846443176
-5.49970006942749023 1.77563142776489258 2.76691150665283203 -0.965071976184844971 -0.133588999509811401 -0.225366279482841492
-0.000300000014249235392 4.41662502288818359 4.18108701705932617 0.972651839256286621 0.182229146361351013 -0.144016876816749573
-0.000300000014249235392 0.804828405380249023 3.922515869140625 0.977442502975463867 -0.12441541999578476 -0.170666158199310303
-5.49970006942749023 2.03146767616271973 3.4691469669342041 -0.973975181579589844 -0.0524141266942024231 -0.220510929822921753
-5.49970006942749023 0.160852909088134766 4.77481794357299805 -0.964368224143981934 -0.253624379634857178 -0.0752894729375839233
-0.000300000014249235392 0.679945707321166992 0.0321965217590332031 0.994481742382049561 -0.0724987611174583435 0.0758286118507385254
-5.49970006942749023 1.61860668659210205 3.24373006820678711 -0.966478705406188965 -0.160042032599449158 -0.200761899352073669
-5.49970006942749023 0.371511220932006836 4.37597417831420898 -0.971078157424926758 -0.209097027778625488 -0.11526285856962204
-5.49970006942749023 4.97558069229125977 4.79906463623046875 -0.985158324241638184 -0.16119721531867981 0.0589777752757072449
-4.05827665328979492 5.49970006942749023 4.6071467399597168 -0.123742356896400452 0.986227035522460938 -0.109744913876056671
