ply
format ascii 1.0
element vertex 376
property float x
property float y
property float z
property float nx
property float ny
property float nz
end_header
-4.20589399337768555 5.49700069427490234 4.19930934906005859 -0.312478870153427124 0.902350008487701416 -0.296852439641952515
-4.82964515686035156 5.49530649185180664 5.49700021743774414 -0.432403832674026489 -0.00117441429756581783 0.901679277420043945
-2.21857595443725586 5.49700021743774414 4.89083194732666016 0.0576992295682430267 0.979376018047332764 -0.193632081151008606
-2.30180168151855469 5.49700021743774414 3.41109943389892578 0.288466423749923706 0.787428617477416992 -0.544741511344909668
-0.00299976160749793053 0.510332584381103516 3.91627883911132812 0.658707380294799805 -0.61389392614364624 -0.435015857219696045
-0.453260898590087891 0.792998075485229492 5.49700021743774414 -0.269525259733200073 0.169202908873558044 0.948011875152587891
-0.00300023844465613365 0.328185796737670898 3.90086102485656738 0.617217063903808594 -0.699914216995239258 -0.359392762184143066
-3.64472484588623047 5.49700021743774414 3.93607091903686523 -0.0692043453454971313 0.827259838581085205 -0.557540953159332275
-5.49700021743774414 0.184106349945068359 5.25347757339477539 -0.72928154468536377 -0.682552456855773926 -0.0476501733064651489
-2.2541651725769043 5.49700021743774414 1.89687252044677734 0.179384380578994751 0.604073703289031982 -0.776476800441741943
-3.09170198440551758 -0.636131763458251953 0.00300000002607703209 0.0182979069650173187 -0.532558560371398926 -0.846195340156555176
-0.229223489761352539 5.49699974060058594 3.93666887283325195 0.549506187438964844 0.737822473049163818 -0.391996145248413086
-1.58527326583862305 5.49700021743774414 5.03088569641113281 0.3592110276222229 0.925262570381164551 -0.121887817978858948
-0.00300023844465613365 3.03824567794799805 3.95891714096069336 0.821462512016296387 0.209829375147819519 -0.530255556106567383
-0.763178229331970215 2.52397346496582031 5.49700021743774414 -0.423809468746185303 -0.286713659763336182 0.859174489974975586
-0.00300000002607703209 2.13670182228088379 4.42447996139526367 0.945213139057159424 0.0437977612018585205 -0.323502600193023682
-1.19970250129699707 1.44048798084259033 2.46928143501281738 -0.500358879566192627 -0.290029197931289673 -0.815796554088592529
-1.19972455501556396 1.43988609313964844 2.4683072566986084 -0.881088614463806152 0.101327046751976013 -0.461969375610351562
-2.65370488166809082 5.49700021743774414 3.5518040657043457 -0.0545228049159049988 0.779514551162719727 -0.624006688594818115
-3.23501133918762207 0.620856285095214844 0.00300047686323523521 -0.143885746598243713 -0.199111878871917725 -0.969356179237365723
-3.59835577011108398 0.181266605854034424 0.0351414866745471954 -0.637339651584625244 -0.768200397491455078 0.0605506338179111481
-3.53422999382019043 0.206038713455200195 0.00300000002607703209 0.830584943294525146 0.320860832929611206 -0.455166935920715332
-3.34836840629577637 1.66719913482666016 0.00300000002607703209 -0.13479188084602356 0.00528133055195212364 -0.990859866142272949
-5.49699974060058594 1.82256674766540527 5.24719047546386719 -0.905604243278503418 -0.411900997161865234 -0.101086556911468506
-0.00300000002607703209 2.20547723770141602 3.81481409072875977 0.865099847316741943 -0.258029788732528687 -0.430142879486083984
-0.636123180389404297 3.75891542434692383 0.00299976160749793053 -0.151924580335617065 0.37276381254196167 -0.915404856204986572
-5.49700021743774414 4.26965713500976562 3.79263472557067871 -0.847485959529876709 0.345232993364334106 -0.403214186429977417
-5.49700021743774414 3.23287510871887207 4.14661598205566406 -0.902850151062011719 0.110123194754123688 -0.415613353252410889
-2.62806010246276855 5.49700021743774414 5.14070510864257812 0.0857135504484176636 0.992491960525512695 -0.0872518196702003479
-3.6020352840423584 5.49700021743774414 3.73427224159240723 -0.162314489483833313 0.833564281463623047 -0.528038442134857178
-0.00300000002607703209 3.26635551452636719 3.51953887939453125 0.679211318492889404 0.425414890050888062 -0.598075389862060547
-0.00300000002607703209 4.55372047424316406 3.82900142669677734 0.58988642692565918 0.689000368118286133 -0.421084940433502197
-5.49699926376342773 2.23913812637329102 4.72225189208984375 -0.911467015743255615 -0.38378491997718811 0.148111402988433838
-5.49700069427490234 3.85642075538635254 5.17024135589599609 -0.910879611968994141 0.406161993741989136 -0.0730122700333595276
-5.49700021743774414 1.93022751808166504 4.2401881217956543 -0.913139045238494873 -0.139585331082344055 -0.383005201816558838
-0.00299976160749793053 1.25528287887573242 2.98948550224304199 0.748528420925140381 -0.0704259797930717468 -0.659352242946624756
-0.527745246887207031 5.49700069427490234 5.28685379028320312 0.544827699661254883 0.837549805641174316 -0.0409042760729789734
-0.00300000002607703209 -0.635329008102416992 0.58892822265625 0.462978065013885498 -0.458601951599121094 -0.758508801460266113
-0.00299976160749793053 1.32366347312927246 3.85988020896911621 0.741147696971893311 -0.532921671867370605 -0.408282428979873657
-0.00299976160749793053 3.92861652374267578 4.81076860427856445 0.742782473564147949 0.637495577335357666 -0.204630523920059204
-3.5311429500579834 3.38779163360595703 4.34384250640869141 -0.553696990013122559 0.0572516359388828278 -0.830747783184051514
-2.34601330757141113 2.77450132369995117 5.49700021743774414 0.671231865882873535 -0.347354412078857422 0.654822647571563721
-0.00300000002607703209 0.428814172744750977 3.00861215591430664 0.670166492462158203 -0.432363331317901611 -0.603273391723632812
-1.03841149806976318 1.01175451278686523 5.49700021743774414 -0.375116825103759766 0.211192071437835693 0.902599155902862549
-2.23099923133850098 1.80357885360717773 2.91757655143737793 0.318623125553131104 -0.141178056597709656 -0.937308967113494873
-3.37077593803405762 0.383439421653747559 0.886240482330322266 0.031799856573343277 -0.328989028930664062 -0.943798184394836426
-0.288861751556396484 0.187676429748535156 0.00300000002607703209 0.364782184362411499 -0.305838584899902344 -0.879429757595062256
-5.49699974060058594 0.157000541687011719 3.05975580215454102 -0.75154411792755127 -0.378413259983062744 -0.540356159210205078
-0.19429779052734375 5.49700021743774414 2.01799750328063965 0.474074065685272217 0.524316310882568359 -0.707351565361022949
-5.49700021743774414 2.57576084136962891 4.69570732116699219 -0.95684438943862915 0.186636373400688171 -0.222745805978775024
-5.49700021743774414 1.9164508581161499 4.99973392486572266 -0.975261032581329346 0.133708983659744263 -0.176033616065979004
-3.47409510612487793 3.65492892265319824 4.28506898880004883 -0.0916759669780731201 0.727167487144470215 -0.680310964584350586
-2.62352657318115234 5.49700021743774414 3.91582322120666504 0.411903828382492065 0.893510341644287109 -0.178814232349395752
-5.49700021743774414 3.49222755432128906 4.81458663940429688 -0.909354865550994873 0.276134222745895386 -0.311165004968643188
-5.49700021743774414 3.60176587104797363 3.9720914363861084 -0.905514001846313477 0.154825076460838318 -0.39506155252456665
-2.86067652702331543 5.49700021743774414 5.17973661422729492 -0.332983583211898804 0.937043070793151855 -0.105224668979644775
-3.21616530418395996 5.15018749237060547 5.49700021743774414 -0.601556360721588135 -0.586874842643737793 0.541948199272155762
-3.39915966987609863 3.9855191707611084 3.30299258232116699 -0.156978026032447815 0.597243905067443848 -0.78654789924621582
-3.61753201484680176 -0.242164969444274902 0.748325169086456299 -0.187227815389633179 -0.512432873249053955 -0.838068187236785889
-0.00300047686323523521 4.27419281005859375 4.64614105224609375 0.895340979099273682 0.385327160358428955 -0.223354995250701904
-0.401036262512207031 4.31662225723266602 0.00300000002607703209 0.386017054319381714 0.263086706399917603 -0.884181082248687744
-2.88685870170593262 -0.546393394470214844 0.00300000002607703209 0.00290952716022729874 -0.413501590490341187 -0.910498738288879395
-3.57049655914306641 3.0740818977355957 4.12456512451171875 -0.547089219093322754 0.530826210975646973 -0.647237956523895264
-3.06948304176330566 2.83247184753417969 1.70788216590881348 -0.00763356918469071388 0.262344449758529663 -0.964944124221801758
-5.49700021743774414 0.174274206161499023 0.597485065460205078 -0.644846737384796143 -0.705253303050994873 -0.294602304697036743
-5.49700021743774414 -0.133571147918701172 4.19478797912597656 -0.534391343593597412 -0.755067110061645508 -0.379867792129516602
-3.92437076568603516 0.941252946853637695 0.00300000002607703209 -0.0736040472984313965 -0.280837774276733398 -0.956928730010986328
-5.02890872955322266 5.49700021743774414 1.65428256988525391 -0.527171850204467773 0.474723011255264282 -0.704789280891418457
-1.73351645469665527 5.49700021743774414 3.57558655738830566 0.433374375104904175 0.773788690567016602 -0.461993187665939331
-2.93860411643981934 -0.452916622161865234 0.00299952318891882896 -0.061352606862783432 -0.553475499153137207 -0.830602645874023438
-1.64127588272094727 5.49700021743774414 4.78260517120361328 0.302966266870498657 0.912479400634765625 -0.274941325187683105
-0.00300023844465613365 3.58085441589355469 3.40338850021362305 0.6865805983543396 0.510706603527069092 -0.517480254173278809
-4.89254379272460938 5.49700021743774414 5.21861362457275391 -0.453351199626922607 0.888938188552856445 -0.0652807876467704773
-5.04714870452880859 5.13370466232299805 5.49700021743774414 -0.318881630897521973 -0.749318480491638184 0.580376029014587402
-4.33389854431152344 5.49700021743774414 5.01553535461425781 0.762624442577362061 0.391651898622512817 -0.514793872833251953
-0.00299976160749793053 2.49619340896606445 2.62809038162231445 0.638342916965484619 -0.168839707970619202 -0.751006960868835449
-0.318331718444824219 2.45299053192138672 5.49700021743774414 -0.109130539000034332 -0.0149517646059393883 0.993914961814880371
-0.00300000002607703209 2.73428177833557129 4.29953908920288086 0.911914348602294922 -0.117102816700935364 -0.393318146467208862
-0.00300000002607703209 1.8503957986831665 4.2351069450378418 0.782569468021392822 -0.346385329961776733 -0.517302870750427246
-2.68356847763061523 3.09254622459411621 1.73877346515655518 -0.693478763103485107 0.320778816938400269 -0.645126521587371826
-0.00299976160749793053 2.54418659210205078 5.15694952011108398 0.989727377891540527 0.017755262553691864 -0.141860589385032654
-1.66445958614349365 5.49700021743774414 3.59306097030639648 -0.444950073957443237 0.791586577892303467 -0.41881987452507019
-5.49700021743774414 4.54438161849975586 4.78924942016601562 -0.711877048015594482 0.651344239711761475 -0.262643754482269287
-0.00299952318891882896 -0.0589478015899658203 4.74679660797119141 0.696986913681030273 -0.693248331546783447 -0.183346718549728394
-0.882198929786682129 5.49700021743774414 0.465961933135986328 -0.124337024986743927 0.786150515079498291 -0.605398774147033691
-2.84334731101989746 5.49700021743774414 5.40389299392700195 0.0294490158557891846 0.99921572208404541 -0.0264696516096591949
-3.69653415679931641 3.93054318428039551 4.25294256210327148 -0.40179869532585144 -0.73789447546005249 -0.542281806468963623
-3.26286029815673828 5.21956443786621094 5.49700021743774414 0.235026746988296509 0.698576986789703369 0.675834834575653076
-4.1223597526550293 5.49700021743774414 4.84077787399291992 -0.472890883684158325 0.868154585361480713 -0.150604709982872009
-0.00300000002607703209 4.07765913009643555 3.89103889465332031 0.84670180082321167 0.364761114120483398 -0.387356966733932495
-0.00300023844465613365 -0.258546113967895508 5.12694644927978516 0.827107608318328857 -0.552209794521331787 -0.104677073657512665
-5.49700021743774414 3.92200231552124023 5.07091093063354492 -0.851552128791809082 0.512501120567321777 -0.11046060174703598
-0.00300000002607703209 3.0678403377532959 1.64773654937744141 0.642705023288726807 0.130703568458557129 -0.754881978034973145
-1.65759432315826416 5.49700021743774414 4.26083278656005859 0.169512361288070679 0.89904552698135376 -0.403711140155792236
-0.00300000002607703209 4.55292606353759766 5.23519325256347656 0.773844301700592041 -0.440738886594772339 0.454878240823745728
-1.60834991931915283 5.49700021743774414 4.98648166656494141 0.47349664568901062 0.867943763732910156 -0.149915173649787903
-0.00300000002607703209 1.16296863555908203 4.02172756195068359 0.769563198089599609 -0.500342786312103271 -0.396773993968963623
-1.27484512329101562 2.33535575866699219 1.65299654006958008 -0.433262795209884644 0.399381726980209351 -0.807946503162384033
-2.92679047584533691 3.2724463939666748 3.30299258232116699 -0.19918842613697052 0.516681015491485596 -0.832685232162475586
-3.33342242240905762 5.49700069427490234 3.74484586715698242 -0.176254555583000183 0.965532958507537842 0.191521301865577698
-0.00300000002607703209 0.374552249908447266 1.58287358283996582 0.514203369617462158 -0.790172934532165527 -0.333499103784561157
-0.00299976160749793053 2.31618237495422363 0.278049945831298828 0.456096887588500977 0.00800594128668308258 -0.88989412784576416
-0.00299976160749793053 1.62657904624938965 2.97146391868591309 0.810113370418548584 -0.110282957553863525 -0.575807273387908936
-0.00299976160749793053 -0.180659294128417969 4.54734516143798828 0.666008651256561279 -0.722091376781463623 -0.187126919627189636
-1.3253629207611084 3.32654929161071777 0.00299952318891882896 0.193803101778030396 0.0534194894134998322 -0.979584991931915283
-0.458188295364379883 5.49700021743774414 1.49758744239807129 0.51777493953704834 0.438915342092514038 -0.734344899654388428
-0.00300000002607703209 2.36428046226501465 3.99925088882446289 0.87600243091583252 0.00994249060750007629 -0.482204198837280273
-0.00300000002607703209 1.71707451343536377 4.63965129852294922 0.935064077377319336 -0.0393877848982810974 -0.352283656597137451
-5.49700021743774414 5.00189113616943359 5.10941362380981445 -0.70533454418182373 0.701931238174438477 -0.0989732369780540466
-2.73140954971313477 5.49699974060058594 5.21949005126953125 0.168476983904838562 0.979314208030700684 -0.112067744135856628
-0.00299976160749793053 4.59434318542480469 1.5307459831237793 0.583903610706329346 -0.192964285612106323 -0.788556516170501709
-1.48832213878631592 5.49700021743774414 1.95157432556152344 -0.82986760139465332 0.506001472473144531 0.23512190580368042
-0.00299976160749793053 -0.173430681228637695 4.51629495620727539 0.676650762557983398 -0.696800112724304199 -0.237935692071914673
-3.65408515930175781 5.49700021743774414 3.48426628112792969 -0.397168219089508057 0.6949310302734375 -0.59943997859954834
-3.36264252662658691 4.47537803649902344 1.20589780807495117 0.116227962076663971 -0.407326012849807739 -0.905856847763061523
-5.49700021743774414 -0.0614340305328369141 5.07503318786621094 -0.618295371532440186 -0.775443494319915771 -0.128055453300476074
-0.00300000002607703209 2.62548255920410156 4.22876071929931641 0.904428720474243164 -0.101696394383907318 -0.41432654857635498
-5.49700021743774414 0.153269767761230469 1.16054487228393555 -0.375443816184997559 -0.386407583951950073 -0.842455387115478516
-0.00300000002607703209 2.37654829025268555 4.30972051620483398 0.879595398902893066 -0.012692553922533989 -0.475553184747695923
-1.64335095882415771 4.17534923553466797 0.00300000002607703209 0.251436412334442139 0.193966999650001526 -0.948238670825958252
-0.00299976160749793053 1.4564054012298584 3.5258488655090332 0.830064475536346436 -0.222576454281806946 -0.511324465274810791
-5.49700021743774414 0.0798492431640625 2.2646484375 -0.651915669441223145 -0.444192022085189819 -0.614572584629058838
-5.49700021743774414 2.02679920196533203 4.67151355743408203 -0.972355902194976807 0.00698914704844355583 -0.233399108052253723
-5.49700021743774414 -0.540766477584838867 4.69365978240966797 -0.689732015132904053 -0.70740664005279541 -0.154420152306556702
-5.49700021743774414 1.01642465591430664 4.37654685974121094 -0.863787591457366943 -0.275243490934371948 -0.422033220529556274
-3.70477056503295898 3.23101973533630371 4.37478113174438477 -0.427544921636581421 0.73436051607131958 -0.527181088924407959
-3.54035615921020508 3.03952527046203613 5.49700021743774414 0.142574936151504517 -0.166058003902435303 0.97575455904006958
-3.8059697151184082 0.942425251007080078 0.00300000002607703209 -0.222718670964241028 -0.207713425159454346 -0.952497541904449463
-0.00300000002607703209 4.92339706420898438 4.19217205047607422 0.815611422061920166 0.458131104707717896 -0.353403300046920776
-5.49700021743774414 3.59957528114318848 5.36748695373535156 -0.951857864856719971 -0.229232355952262878 0.203517019748687744
-0.00300000002607703209 1.45606255531311035 4.99981307983398438 0.9636879563331604 -0.177159219980239868 -0.199800357222557068
-3.29140567779541016 5.49699974060058594 3.73501873016357422 0.0627835318446159363 0.882283210754394531 -0.466513186693191528
-1.19044399261474609 5.49700021743774414 1.37685823440551758 0.424809753894805908 0.495452016592025757 -0.757670104503631592
-1.06046414375305176 3.65787386894226074 0.00300000002607703209 0.056486174464225769 -0.799241125583648682 -0.598350226879119873
-0.140367984771728516 -0.675587654113769531 0.00300000002607703209 0.2981109619140625 -0.406849652528762817 -0.863483190536499023
-0.00300023844465613365 2.6439673900604248 1.91260147094726562 0.600047528743743896 0.234639212489128113 -0.764779329299926758
-0.63705134391784668 3.93393254280090332 0.00300023844465613365 -0.265015691518783569 0.539169549942016602 -0.799414098262786865
-2.12218475341796875 1.37940073013305664 2.92617225646972656 -0.0330734886229038239 -0.430674314498901367 -0.901901185512542725
-2.12251758575439453 1.37852299213409424 2.92555904388427734 0.26972430944442749 0.118352264165878296 -0.955636739730834961
-2.12264895439147949 1.37817668914794922 2.92531681060791016 0.351291894912719727 0.300266444683074951 -0.886811196804046631
-4.46598720550537109 5.49700021743774414 4.16550493240356445 -0.48200225830078125 0.82966768741607666 -0.281647652387619019
-4.17346954345703125 3.12606215476989746 4.22256946563720703 -0.679178416728973389 0.49627840518951416 -0.540762782096862793
-5.49700021743774414 3.29569435119628906 3.9347834587097168 -0.96972358226776123 0.124004900455474854 -0.210378080606460571
-0.00300023844465613365 -0.476977825164794922 4.60278749465942383 0.570796012878417969 -0.795059323310852051 -0.205115929245948792
-0.00300000002607703209 3.84234452247619629 3.07914400100708008 0.607830166816711426 0.427156209945678711 -0.6693878173828125
-0.00300047686323523521 0.712945461273193359 0.602063179016113281 0.507598638534545898 -0.185367703437805176 -0.84141695499420166
-0.0786809921264648438 1.07706880569458008 0.00300000002607703209 -0.106943629682064056 0.514540135860443115 -0.850771129131317139
-0.00300000002607703209 1.04828441143035889 0.0329518318176269531 0.88431549072265625 -0.323514819145202637 0.33663669228553772
-0.00299976160749793053 1.80890226364135742 1.0705866813659668 0.536138474941253662 -0.132419303059577942 -0.833679020404815674
-3.44656610488891602 -0.935865879058837891 5.49700021743774414 -0.551329910755157471 -0.439449280500411987 0.709168314933776855
-5.49700021743774414 -0.298609256744384766 4.57178592681884766 -0.748241424560546875 -0.624266386032104492 -0.224557951092720032
-5.49700021743774414 4.30027580261230469 3.52156186103820801 -0.702483296394348145 0.338840663433074951 -0.625862836837768555
-5.49700021743774414 -0.646991252899169922 1.72452235221862793 -0.509790420532226562 -0.468611001968383789 -0.721468985080718994
-3.32590007781982422 5.49700021743774414 5.40639686584472656 -0.438858449459075928 0.89832007884979248 -0.0205997303128242493
-0.00299976160749793053 1.21310973167419434 2.94069528579711914 0.789784491062164307 -0.180716052651405334 -0.586158812046051025
-3.54293727874755859 5.49700021743774414 2.52737736701965332 -0.126810550689697266 0.649138450622558594 -0.750025570392608643
-0.00300023844465613365 1.85559511184692383 4.5889124870300293 0.928577721118927002 0.0487808696925640106 -0.367918342351913452
-5.08848381042480469 2.51246738433837891 0.00300000002607703209 -0.286903172731399536 0.0932311192154884338 -0.953412055969238281
-4.41915464401245117 3.09815382957458496 1.48638510704040527 0.388328194618225098 0.338865727186203003 0.856954634189605713
-5.49700021743774414 3.41387057304382324 1.69801080226898193 -0.943371236324310303 0.275560349225997925 0.184708774089813232
-5.49700021743774414 2.52450203895568848 5.43755817413330078 -0.99573826789855957 -0.0918379053473472595 -0.00843551941215991974
-2.07400250434875488 5.49700021743774414 5.42768716812133789 0.0473441742360591888 0.998800694942474365 -0.0124765550717711449
-5.49700021743774414 0.237402915954589844 4.90506458282470703 -0.88191145658493042 -0.44230353832244873 -0.163094311952590942
-5.49700021743774414 2.19403290748596191 5.42335796356201172 -0.978369355201721191 -0.206062480807304382 -0.0182105470448732376
-5.49700021743774414 1.28828859329223633 3.33547639846801758 -0.748250007629394531 -0.0993860140442848206 -0.655930161476135254
-0.00299976160749793053 0.859969139099121094 2.20156240463256836 0.689598262310028076 -0.251132011413574219 -0.679254710674285889
-1.24861335754394531 0.809731185436248779 1.52995538711547852 -0.880130350589752197 -0.0348108299076557159 -0.473454028367996216
-3.71007657051086426 2.64845037460327148 3.30299258232116699 -0.203506231307983398 0.42011687159538269 -0.884356856346130371
-1.25799274444580078 3.0635077953338623 0.00300000002607703209 0.141680508852005005 0.16481742262840271 -0.976095199584960938
-3.31474161148071289 5.49700021743774414 0.0612092018127441406 -0.644939064979553223 0.76401597261428833 0.0182527769356966019
-5.49700021743774414 2.45179009437561035 2.02040576934814453 -0.490097641944885254 0.119018919765949249 -0.863503813743591309
-2.15174150466918945 5.49700021743774414 5.19794511795043945 0.102442041039466858 0.990908384323120117 -0.0872137099504470825
-0.00299976160749793053 4.4434819221496582 3.0558326244354248 0.669530987739562988 -0.327810376882553101 -0.666534781455993652
-1.72253108024597168 3.9136345386505127 0.00300000002607703209 -0.484892040491104126 -0.149412080645561218 -0.861716747283935547
-5.49700021743774414 2.8429713249206543 4.56394100189208984 -0.947067499160766602 -0.156239837408065796 -0.280450135469436646
-5.49700021743774414 2.45770382881164551 4.48873186111450195 -0.896019339561462402 -0.0274601932615041733 -0.443165063858032227
-2.32374906539916992 4.32308483123779297 0.00299952318891882896 0.0592511259019374847 0.430968433618545532 -0.900419652462005615
-2.91679120063781738 3.84437084197998047 0.372424125671386719 -0.701504945755004883 -0.564590811729431152 0.434888452291488647
-0.00300000002607703209 1.95131886005401611 4.40014982223510742 0.92114865779876709 -0.00706512387841939926 -0.389146804809570312
-0.916721820831298828 2.1942901611328125 5.49700021743774414 -0.629989206790924072 0.16752287745475769 0.758320271968841553
-5.49700021743774414 1.55569720268249512 3.53251218795776367 -0.850829422473907471 -0.098957546055316925 -0.516039490699768066
-5.49700021743774414 0.754212856292724609 0.82387542724609375 -0.501794397830963135 -0.311810135841369629 -0.80683135986328125
-0.87979435920715332 5.49700021743774414 5.12831783294677734 0.717155992984771729 0.688443422317504883 -0.108318597078323364
-0.653447628021240234 3.05713963508605957 0.00299952318891882896 0.295010924339294434 0.14860515296459198 -0.943867087364196777
-0.00300000002607703209 2.9658815860748291 0.682633161544799805 0.68985903263092041 -0.0963432267308235168 0.717504322528839111
-5.49700021743774414 2.67188763618469238 4.92647361755371094 -0.984001278877258301 -0.0360975116491317749 -0.17446628212928772
-2.8570857048034668 5.49700021743774414 5.03398704528808594 0.1499500572681427 0.973407149314880371 -0.173186257481575012
-1.43052256107330322 5.40082645416259766 5.49700021743774414 0.948620975017547607 -0.0639528408646583557 0.309884399175643921
-0.00300000002607703209 3.42551708221435547 3.34049892425537109 0.806059598922729492 0.0880677402019500732 -0.585245251655578613
-5.49700021743774414 2.60099244117736816 4.58543205261230469 -0.892366647720336914 -0.0226376373320817947 -0.450743019580841064
-0.00300047686323523521 2.01270222663879395 1.24679422378540039 0.629752218723297119 -0.104826174676418304 -0.769690573215484619
-4.00670051574707031 2.78809499740600586 3.30299258232116699 -0.609361886978149414 0.203948169946670532 -0.766213595867156982
-3.01239490509033203 2.77592086791992188 5.49700021743774414 0.412307620048522949 -0.00504826847463846207 0.911030709743499756
-3.06278157234191895 2.83455109596252441 2.91169881820678711 0.062195606529712677 0.379953831434249878 -0.922912120819091797
-4.10365915298461914 2.2628931999206543 5.49700021743774414 -0.365512371063232422 -0.200742214918136597 0.908902287483215332
-3.84898233413696289 3.25690698623657227 4.41888284683227539 -0.572470724582672119 0.567144811153411865 -0.592135131359100342
-4.45498085021972656 3.05144453048706055 5.49700021743774414 -0.482371598482131958 -0.163546979427337646 0.860563695430755615
-3.61293768882751465 3.65404915809631348 4.39136028289794922 -0.289677321910858154 0.75681757926940918 -0.585930168628692627
-3.40348315238952637 5.49700021743774414 4.64958620071411133 0.111670017242431641 0.984162569046020508 0.137672364711761475
-1.22992026805877686 5.49700021743774414 4.17018699645996094 0.32677161693572998 0.829706728458404541 -0.45255616307258606
-0.00300000002607703209 5.09040498733520508 3.42946767807006836 0.824227690696716309 -0.272478669881820679 -0.496391087770462036
-0.169237375259399414 5.49700021743774414 2.87657642364501953 -0.234838947653770447 0.578623533248901367 -0.781054079532623291
-1.84267377853393555 5.49699974060058594 3.1708223819732666 0.233881101012229919 0.82106250524520874 -0.520726442337036133
-0.00299976160749793053 2.15488409996032715 5.25946569442749023 0.423545986413955688 -0.768198609352111816 0.48008301854133606
-3.61430835723876953 5.49700021743774414 4.86702966690063477 -0.731307506561279297 0.677402257919311523 -0.0794701874256134033
-0.00300023844465613365 4.44146537780761719 4.116851806640625 0.631804108619689941 0.701984405517578125 -0.328696578741073608
-0.562896490097045898 5.49700021743774414 4.10372161865234375 -0.46753045916557312 0.883908987045288086 -0.0109641673043370247
-0.00300023844465613365 3.27818202972412109 4.61486101150512695 0.860499322414398193 0.449481725692749023 -0.239806339144706726
-0.434328079223632812 2.27791738510131836 5.49700021743774414 -0.307304948568344116 -0.712651073932647705 0.630628347396850586
-0.00300000002607703209 5.44543361663818359 4.87035942077636719 0.13331177830696106 0.972231149673461914 -0.192339807748794556
-5.49700021743774414 3.1983332633972168 4.86512088775634766 -0.867407619953155518 0.455352306365966797 -0.200644701719284058
-0.00300000002607703209 2.99667477607727051 3.9178619384765625 0.891038715839385986 -0.111362643539905548 -0.440055012702941895
-0.751050472259521484 0.789750814437866211 5.49700021743774414 -0.265586018562316895 -0.783540904521942139 0.561718523502349854
-3.6912837028503418 5.49700021743774414 3.22850513458251953 -0.170446440577507019 0.709510147571563721 -0.683771371841430664
-1.18251514434814453 5.49700021743774414 5.09073257446289062 0.457210302352905273 0.879895925521850586 -0.129390642046928406
-4.54299354553222656 5.49700021743774414 2.47677254676818848 -0.32988312840461731 0.56802445650100708 -0.75400620698928833
-4.18321990966796875 4.22082757949829102 2.0742640495300293 0.259743273258209229 -0.921142280101776123 -0.289879918098449707
-2.2717585563659668 5.49700021743774414 0.908548712730407715 0.741296529769897461 0.496084362268447876 -0.452083826065063477
-1.43714225292205811 1.33639740943908691 2.81290483474731445 0.387299954891204834 -0.392259895801544189 -0.834344625473022461
-0.00300000002607703209 -0.0246324539184570312 1.03536677360534668 0.540209531784057617 -0.511599540710449219 -0.668161392211914062
-0.405390024185180664 0.246543407440185547 0.00300000002607703209 -0.351913988590240479 0.237159445881843567 -0.905489921569824219
-0.00300000002607703209 4.23895502090454102 4.16732501983642578 0.812633097171783447 0.36834341287612915 -0.451608926057815552
-0.031711578369140625 5.49700021743774414 1.1580810546875 0.38979649543762207 0.486134141683578491 -0.782133162021636963
-0.00300000002607703209 3.75881052017211914 4.48068666458129883 0.885347068309783936 0.339997678995132446 -0.317115336656570435
-5.49700021743774414 5.27193260192871094 1.02729105949401855 -0.824660897254943848 0.226998880505561829 -0.518079042434692383
-0.00300000002607703209 0.575479984283447266 4.49207401275634766 0.753788888454437256 -0.573806583881378174 -0.320231646299362183
-5.49700021743774414 2.67177867889404297 5.04418134689331055 -0.981827080249786377 -0.039005964994430542 -0.185725957155227661
-1.80212891101837158 2.10879707336425781 2.88999485969543457 0.449143737554550171 -0.147623136639595032 -0.881179511547088623
-1.80149781703948975 2.10923552513122559 2.88957548141479492 0.155704081058502197 -0.487542331218719482 -0.85910344123840332
-1.80124378204345703 2.10941195487976074 2.88940644264221191 0.0362534224987030029 -0.591017484664916992 -0.805843710899353027
-3.84156918525695801 2.9391632080078125 4.00967502593994141 -0.748498976230621338 0.33454933762550354 -0.572560966014862061
-5.49700021743774414 1.35269355773925781 3.14366459846496582 -0.676080226898193359 -0.646744370460510254 -0.353040099143981934
-0.00300023844465613365 1.90098273754119873 4.91008090972900391 0.927681267261505127 -0.341525882482528687 -0.150889217853546143
-2.82848930358886719 5.49700021743774414 4.98257350921630859 0.0286514628678560257 0.989641129970550537 -0.140675097703933716
-0.00300023844465613365 3.04599857330322266 5.15813636779785156 0.754906058311462402 -0.654156982898712158 0.0468566827476024628
-1.35087895393371582 3.25614547729492188 5.49700021743774414 -0.958425998687744141 0.14942757785320282 0.243086457252502441
-5.49700021743774414 3.5725245475769043 3.66398715972900391 -0.785836756229400635 0.320815235376358032 -0.528713703155517578
-5.49700021743774414 3.22860932350158691 3.19000363349914551 -0.64388042688369751 0.156606480479240417 -0.748927533626556396
-0.00299976160749793053 3.66104245185852051 4.00528621673583984 0.758875012397766113 0.461081624031066895 -0.45990481972694397
-5.49700069427490234 4.92734241485595703 4.51629829406738281 -0.7645835280418396 0.565705180168151855 -0.308852165937423706
-3.41544580459594727 4.02538347244262695 3.30299258232116699 -0.191232725977897644 0.565955579280853271 -0.801950335502624512
-0.00300023844465613365 0.403364181518554688 5.0654149055480957 0.646725237369537354 -0.685840606689453125 0.333720177412033081
-0.717253684997558594 3.3069148063659668 0.00300047686323523521 0.292777121067047119 0.00338619877584278584 -0.956174731254577637
-0.00300000002607703209 0.886753559112548828 4.31940031051635742 0.916996777057647705 -0.229116156697273254 -0.326531291007995605
-5.49700021743774414 5.18731403350830078 4.6542510986328125 -0.533742070198059082 0.824235320091247559 -0.18909136950969696
-0.00299976160749793053 -0.0118196010589599609 5.07696247100830078 0.793958902359008789 -0.600465655326843262 -0.0952375978231430054
-5.49700021743774414 5.17844104766845703 4.02877569198608398 -0.685677111148834229 0.656488776206970215 -0.314435005187988281
-0.00299976160749793053 2.36707544326782227 0.711739063262939453 0.470093995332717896 0.0456702113151550293 -0.881433963775634766
-3.20128083229064941 2.13224363327026367 0.00300047686323523521 -0.0230968296527862549 -0.154553994536399841 -0.98771435022354126
-5.49700021743774414 -0.661287069320678711 2.88293719291687012 -0.497121065855026245 -0.604129016399383545 0.622815191745758057
-4.99452781677246094 5.49700021743774414 3.49399852752685547 -0.54207080602645874 0.674803018569946289 -0.500799477100372314
-3.08734893798828125 2.82693004608154297 2.69518256187438965 -0.210945293307304382 0.332219988107681274 -0.919310569763183594
-2.7055659294128418 2.94536209106445312 0.0134865054860711098 -0.016535075381398201 0.00302709429524838924 -0.999858677387237549
-3.1025848388671875 0.253144025802612305 5.49700021743774414 -0.0648264512419700623 -0.439593464136123657 0.895854473114013672
-0.00300000002607703209 2.12000560760498047 0.961230278015136719 0.53457564115524292 0.321660429239273071 -0.781513571739196777
-2.8758995532989502 2.90396475791931152 3.30299210548400879 0.0222460944205522537 -0.261808335781097412 -0.964863479137420654
-0.494192123413085938 5.49699974060058594 5.23006200790405273 0.479471296072006226 0.875227510929107666 -0.0639065951108932495
-0.00300000002607703209 4.78453826904296875 4.45916271209716797 0.425946414470672607 -0.614074051380157471 -0.664441704750061035
-0.00300000002607703209 0.915637969970703125 2.46508932113647461 0.534892141819000244 -0.42738109827041626 -0.728859245777130127
-5.49700021743774414 0.959295034408569336 0.115327835083007812 -0.408342450857162476 -0.164367571473121643 -0.897908568382263184
-5.49700021743774414 3.30579137802124023 5.42852449417114258 -0.871428191661834717 0.490327239036560059 -0.0138587579131126404
-0.00300023844465613365 4.99210548400878906 5.26213788986206055 0.601891458034515381 0.797229766845703125 -0.0463829822838306427
-5.49700021743774414 5.00274753570556641 0.797327995300292969 -0.77621692419052124 0.00150274438783526421 -0.630464136600494385
-0.961762785911560059 0.0442242622375488281 0.00300000002607703209 0.172106549143791199 -0.341750383377075195 -0.923897206783294678
-2.38026666641235352 5.49700021743774414 5.32238483428955078 0.371570080518722534 0.926927447319030762 -0.0523561462759971619
-0.00299976160749793053 0.941187381744384766 3.7446601390838623 0.442689508199691772 -0.847304403781890869 -0.293430179357528687
-2.45588135719299316 4.28540563583374023 0.00300023844465613365 -0.43897518515586853 0.598491489887237549 -0.670155763626098633
-0.00299976160749793053 0.850967884063720703 1.73968315124511719 0.61079031229019165 -0.37146112322807312 -0.699250936508178711
-5.23786830902099609 0.976200222969055176 5.49699974060058594 -0.812027156352996826 0.0194259043782949448 0.583296239376068115
-5.49700021743774414 0.608705520629882812 5.37985515594482422 -0.562084436416625977 -0.788012683391571045 -0.251191467046737671
-2.40065574645996094 1.5196535587310791 2.74348783493041992 0.057584032416343689 -0.536002099514007568 -0.842250466346740723
-2.40099167823791504 1.51881277561187744 2.74261641502380371 0.649212121963500977 -0.050288766622543335 -0.75894320011138916
-2.4011225700378418 1.518485426902771 2.74227714538574219 0.762159824371337891 0.115124493837356567 -0.637070596218109131
-3.10728859901428223 3.33893752098083496 3.30299234390258789 0.190483137965202332 0.523366630077362061 -0.830544114112854004
-1.15263688564300537 5.49700021743774414 3.39643168449401855 0.670456290245056152 0.741256415843963623 0.0320502370595932007
-2.6204686164855957 5.49700021743774414 2.77872204780578613 0.173021331429481506 0.709999322891235352 -0.682615995407104492
-3.07926225662231445 4.36811733245849609 2.797760009765625 -0.378221601247787476 -0.92558366060256958 0.0155973322689533234
-2.46244597434997559 5.49700021743774414 2.85998868942260742 0.477952092885971069 0.877061426639556885 0.0482191219925880432
-0.0462560653686523438 5.49700021743774414 4.59820413589477539 0.544626593589782715 0.80585092306137085 -0.232349306344985962
-5.05511569976806641 5.49700021743774414 4.70523834228515625 -0.630736291408538818 0.734776496887207031 -0.24955005943775177
-4.21129798889160156 5.20694112777709961 5.49700021743774414 0.706177234649658203 -0.242745652794837952 0.665122747421264648
-5.49700021743774414 2.13638162612915039 3.56080293655395508 -0.334553450345993042 -0.797132670879364014 -0.502646505832672119
-5.49700021743774414 0.409334659576416016 4.98542165756225586 -0.742101848125457764 -0.659371554851531982 -0.120473876595497131
-0.811060190200805664 2.45219111442565918 0.00300000002607703209 0.348577111959457397 -0.0525612570345401764 -0.935805141925811768
-0.00300023844465613365 0.597840309143066406 4.35443401336669922 0.717400431632995605 -0.563403069972991943 -0.409772604703903198
-0.00300023844465613365 4.2699737548828125 3.90885591506958008 0.733428835868835449 0.563739955425262451 -0.37984129786491394
-0.0292952060699462891 5.29364728927612305 0.00300000002607703209 0.403593838214874268 0.343049347400665283 -0.848191678524017334
-2.02500486373901367 5.49700021743774414 2.44271540641784668 0.222330585122108459 0.5977286696434021 -0.770252883434295654
-5.49700021743774414 3.80788803100585938 2.03369331359863281 -0.894382715225219727 -0.434738099575042725 -0.105272725224494934
-3.46012020111083984 1.07403182983398438 0.00300000002607703209 -0.0883725881576538086 -0.338462948799133301 -0.936820745468139648
-2.52716159820556641 1.69065380096435547 2.45933842658996582 0.01767687126994133 -0.00827178172767162323 -0.999809563159942627
-3.18595623970031738 1.68690252304077148 0.00300023844465613365 -0.25875169038772583 -0.0014733574353158474 -0.965942800045013428
-3.18103361129760742 1.68676257133483887 0.00300000002607703209 0.853656530380249023 -0.0242600776255130768 -0.520271122455596924
-5.49700021743774414 0.897425532341003418 5.11204814910888672 -0.93580704927444458 -0.33891606330871582 -0.0969588905572891235
-5.49700021743774414 1.94859600067138672 5.00111579895019531 -0.885770797729492188 -0.427995562553405762 -0.179526954889297485
-5.49700021743774414 2.53459596633911133 5.23892307281494141 -0.966834366321563721 -0.24470946192741394 -0.0731342881917953491
-0.913252353668212891 5.15009689331054688 0.00300047686323523521 0.399104714393615723 0.304213941097259521 -0.864967823028564453
-0.00300000002607703209 5.17132282257080078 0.143798112869262695 0.988062679767608643 0.0229645874351263046 0.15233120322227478
-0.298244953155517578 4.92069053649902344 0.00300000002607703209 -0.714679360389709473 -0.606689393520355225 -0.348082482814788818
-5.49699974060058594 3.7788386344909668 5.01082563400268555 -0.935987532138824463 0.320982009172439575 -0.144560828804969788
-0.00300023844465613365 -0.219862699508666992 4.25091218948364258 0.671231329441070557 -0.652633726596832275 -0.351450920104980469
-0.00300000002607703209 0.266771316528320312 2.91367816925048828 0.59686809778213501 -0.453673839569091797 -0.661761701107025146
-0.152341604232788086 2.31627464294433594 5.49700021743774414 -0.0452097430825233459 0.620440185070037842 0.782949626445770264
-4.32401371002197266 5.49699926376342773 3.45803499221801758 -0.740978658199310303 0.565497875213623047 -0.362164050340652466
-2.78804469108581543 3.28131198883056641 3.30299258232116699 0.291766434907913208 0.508533000946044922 -0.81010282039642334
-0.0497219562530517578 5.49700021743774414 3.30520415306091309 0.776974022388458252 0.629532396793365479 0.000627494649961590767
-5.49700021743774414 4.19586753845214844 5.4086456298828125 -0.942608416080474854 0.333365857601165771 -0.0188817437738180161
-5.49700021743774414 4.7028346061706543 5.42498111724853516 -0.8562125563621521 0.516510903835296631 -0.0107943983748555183
-2.16882109642028809 1.55543637275695801 2.9620521068572998 0.263775646686553955 -0.325619995594024658 -0.907961487770080566
-5.49700021743774414 -0.319840908050537109 4.97432804107666016 -0.569501221179962158 -0.810808956623077393 -0.135119259357452393
-3.67292594909667969 0.712420940399169922 0.00299952318891882896 -0.105659976601600647 -0.277794361114501953 -0.954812169075012207
-5.49700021743774414 0.551808357238769531 5.11287403106689453 -0.906153202056884766 -0.405768483877182007 -0.119324624538421631
-0.00300000002607703209 3.38851046562194824 2.17464876174926758 0.622841119766235352 -0.0114645436406135559 -0.782264351844787598
-1.21729326248168945 1.37430238723754883 2.37688112258911133 -0.515480756759643555 -0.85261237621307373 0.0856255218386650085
-1.21784591674804688 1.37306320667266846 2.37700247764587402 -0.999866008758544922 -0.00721007585525512695 0.0146993193775415421
-5.49700021743774414 1.20781528949737549 4.25615596771240234 -0.805417299270629883 -0.393794596195220947 -0.442977219820022583
-5.49700021743774414 1.45411109924316406 1.00009441375732422 -0.511445581912994385 -0.283979594707489014 -0.811035752296447754
-3.53883886337280273 3.24301886558532715 4.28278350830078125 -0.172256216406822205 0.762587189674377441 -0.623529136180877686
-1.44575190544128418 3.1319727897644043 5.49699974060058594 0.863544821739196777 -0.0458142757415771484 0.502186834812164307
-5.49700021743774414 1.40071117877960205 0.729155540466308594 -0.561155319213867188 -0.147634491324424744 -0.814437687397003174
-3.14966559410095215 2.80759882926940918 2.13278746604919434 -0.338145077228546143 0.127569839358329773 -0.932407557964324951
-0.00300023844465613365 0.840039730072021484 2.07241034507751465 0.632801473140716553 -0.157502070069313049 -0.758126258850097656
-5.49700021743774414 3.46681475639343262 4.15735149383544922 -0.892153501510620117 0.130003288388252258 -0.43262144923210144
-3.32436037063598633 4.11158561706542969 3.30299210548400879 -0.389436483383178711 0.441223442554473877 -0.808493077754974365
-5.49700021743774414 0.545276403427124023 4.25928878784179688 -0.703810393810272217 -0.629942178726196289 -0.32836538553237915
-4.15499591827392578 1.87621593475341797 0.00299952318891882896 -0.366186618804931641 -0.164661034941673279 -0.915857017040252686
-3.90669107437133789 5.49700021743774414 4.60352945327758789 -0.406578958034515381 0.859428167343139648 -0.30996251106262207
-5.49700021743774414 2.64815521240234375 3.62809252738952637 -0.467690110206604004 -0.836232423782348633 -0.286323755979537964
-1.58050060272216797 5.49700021743774414 2.65726041793823242 0.392511457204818726 0.563182234764099121 -0.727159261703491211
-5.49700021743774414 1.57290494441986084 4.29085159301757812 -0.721938490867614746 -0.571198940277099609 -0.390559345483779907
-1.55732834339141846 -0.0931127071380615234 0.00299952318891882896 0.314815551042556763 -0.395256966352462769 -0.862938642501831055
-0.00300000002607703209 2.19973373413085938 3.95802497863769531 0.860723316669464111 -0.174363031983375549 -0.478281199932098389
-0.89643549919128418 1.98988354206085205 1.47859740257263184 -0.338903933763504028 -0.0790221542119979858 -0.937496483325958252
-0.00300000002607703209 1.24535155296325684 1.63774299621582031 0.762199103832244873 -0.633042335510253906 0.13531436026096344
-3.05234622955322266 -0.358664274215698242 0.00300000002607703209 -0.132820948958396912 -0.372102737426757812 -0.918639302253723145
-5.49700021743774414 0.914605975151062012 1.46541118621826172 -0.398719668388366699 -0.399280786514282227 -0.825589179992675781
-5.49700021743774414 2.1425626277923584 4.79197502136230469 -0.955410301685333252 -0.193133056163787842 -0.223362520337104797
-1.78587102890014648 5.49699974060058594 2.22420501708984375 0.103210017085075378 0.682665348052978516 -0.723405659198760986
-3.75880289077758789 5.49700021743774414 4.38557624816894531 -0.293447345495223999 0.907450497150421143 -0.300702929496765137
-3.85373902320861816 5.01518678665161133 5.49700021743774414 -0.0779554843902587891 -0.395634382963180542 0.915093660354614258
-4.13955593109130859 0.684314966201782227 0.00300000002607703209 -0.17840854823589325 -0.356885284185409546 -0.91695326566696167
-3.38438987731933594 3.20729613304138184 3.93916416168212891 -0.625968635082244873 0.369446665048599243 -0.686784088611602783
-1.9463036060333252 2.2420046329498291 2.72701048851013184 0.679700911045074463 -0.457282572984695435 -0.573497176170349121
-1.94557130336761475 2.24226021766662598 2.72680902481079102 0.375662326812744141 -0.723497569561004639 -0.579162418842315674
-0.00300000002607703209 1.53458011150360107 5.33855152130126953 0.976222336292266846 -0.21352994441986084 -0.0373479388654232025
-5.49700021743774414 0.826113462448120117 1.36136817932128906 -0.391295671463012695 -0.434348374605178833 -0.811313271522521973
-3.80513930320739746 3.58255958557128906 4.46875143051147461 -0.544556558132171631 0.351236999034881592 -0.761636853218078613
-4.27507209777832031 4.34940242767333984 5.49700021743774414 -0.343432188034057617 0.560417890548706055 0.753648519515991211
-3.73278236389160156 5.49700021743774414 4.03894996643066406 -0.398802995681762695 0.761149942874908447 -0.511475265026092529
-5.49700021743774414 0.719240188598632812 3.10617375373840332 -0.341239780187606812 -0.922558605670928955 -0.180113866925239563
-5.49700021743774414 1.16787385940551758 4.89183998107910156 -0.911296844482421875 -0.329734742641448975 -0.246603146195411682
-0.00299952318891882896 2.85597395896911621 2.03725719451904297 0.697009921073913574 0.161065295338630676 -0.698738276958465576
-1.2816765308380127 5.49699974060058594 4.24749422073364258 0.241003543138504028 0.918710708618164062 -0.312870502471923828
-0.00300000002607703209 2.43711400032043457 0.705904483795166016 0.264117538928985596 -0.63055652379989624 -0.729822158813476562
-0.151719570159912109 5.49700021743774414 3.81519460678100586 0.643554568290710449 0.644751906394958496 -0.412471175193786621
-5.49700021743774414 1.91416442394256592 4.91220808029174805 -0.967094480991363525 0.0353703387081623077 -0.251946836709976196
-0.0179543495178222656 5.04897499084472656 0.00300000002607703209 0.453987270593643188 0.291040390729904175 -0.842134833335876465
-0.849331021308898926 5.49700069427490234 1.47176361083984375 0.328369557857513428 0.643735826015472412 -0.691214561462402344
-3.78268551826477051 3.08888483047485352 4.28532648086547852 -0.26755031943321228 -0.0249183531850576401 -0.963221609592437744
-2.25076627731323242 5.49700021743774414 0.772776603698730469 0.234052374958992004 0.455522537231445312 -0.858905494213104248
-5.49700021743774414 -0.493240118026733398 0.804937362670898438 -0.414523094892501831 -0.528364479541778564 -0.740946412086486816
-5.49700021743774414 2.32394933700561523 4.51428699493408203 -0.905669093132019043 0.0496000424027442932 -0.421073973178863525
-1.65178060531616211 0.258946895599365234 0.00300000002607703209 0.27548941969871521 -0.315298408269882202 -0.908125817775726318
-1.49822390079498291 0.720943629741668701 1.3839256763458252 0.105385579168796539 0.317268162965774536 0.94246208667755127
-0.00300000002607703209 -0.986140727996826172 1.35985481739044189 0.659595131874084473 -0.751546323299407959 -0.0105972522869706154
-0.00300000002607703209 2.4006495475769043 3.73118209838867188 0.883915483951568604 -0.0522841326892375946 -0.464714735746383667
-3.28721213340759277 4.12128257751464844 3.30299258232116699 -0.305357754230499268 0.561375737190246582 -0.769164443016052246
-4.03065204620361328 5.49700021743774414 3.92618179321289062 -0.186066150665283203 0.867663919925689697 -0.461019158363342285
-3.02935218811035156 3.557159423828125 3.30299210548400879 0.174894094467163086 0.369372963905334473 -0.912675023078918457
-3.49431562423706055 3.34014892578125 3.48366999626159668 -0.855178773403167725 -0.395812749862670898 0.334666341543197632
-3.47902584075927734 3.09681558609008789 3.30299258232116699 0.0500881075859069824 -0.797139406204223633 -0.601713895797729492
-4.15452671051025391 2.61691522598266602 3.30299258232116699 -0.495971649885177612 0.379235386848449707 -0.781148254871368408
-5.49700021743774414 2.64814949035644531 3.40614151954650879 -0.697070062160491943 0.226391211152076721 -0.68032371997833252
-4.15140390396118164 5.49700021743774414 3.03575587272644043 -0.386532843112945557 0.623658716678619385 -0.679442524909973145
-2.78305363655090332 5.49700021743774414 3.0865323543548584 0.0270369779318571091 0.644638478755950928 -0.764009356498718262
-5.49700021743774414 4.08621788024902344 5.04457473754882812 -0.88597029447555542 0.42800295352935791 -0.178521990776062012
