ply
format ascii 1.0
element vertex 374
property float x
property float y
property float z
property float nx
property float ny
property float nz
end_header
-5.49970006942749023 4.65944480895996094 4.49258089065551758 -0.996821999549865723 0.0622984506189823151 -0.0496471859514713287
-3.08274316787719727 5.49970006942749023 5.07097864151000977 0.271706521511077881 0.939332306385040283 -0.209356784820556641
-3.08284544944763184 5.49970006942749023 5.07103919982910156 -0.0515613220632076263 0.998451828956604004 -0.0208610128611326218
-4.62631702423095703 -0.832651853561401367 0.000300000014249235392 -0.0354121513664722443 -0.0713332593441009521 -0.996823668479919434
-5.07918262481689453 5.49970006942749023 3.00474309921264648 0.206269264221191406 0.636171698570251465 -0.743463873863220215
-5.07935094833374023 5.49970006942749023 3.00499463081359863 -0.219273760914802551 0.926595449447631836 -0.305515825748443604
-0.000300000014249235392 0.258977174758911133 4.96670341491699219 0.99446403980255127 -0.103334389626979828 -0.0190580841153860092
-0.000300000014249235392 2.5878903865814209 3.23536038398742676 0.993116021156311035 -0.000838127569295465946 -0.117131538689136505
-2.61154317855834961 5.49970006942749023 2.75925135612487793 0.182211056351661682 0.981162667274475098 0.0641793534159660339
-5.49970006942749023 4.83407306671142578 5.42876482009887695 -0.995341598987579346 0.0964006185531616211 -0.00136894499883055687
-3.98836183547973633 5.49970006942749023 3.1635582447052002 -0.0551644191145896912 0.993394970893859863 -0.100613750517368317
-0.000300000014249235392 1.65335845947265625 3.89582061767578125 0.996080935001373291 -0.0332088693976402283 -0.0819749832153320312
-4.76320838928222656 0.498271465301513672 0.000300000014249235392 0.397747576236724854 -0.154880613088607788 -0.904327809810638428
-4.76335334777832031 0.498307943344116211 0.000300000014249235392 -0.0435789190232753754 -0.0488231629133224487 -0.997856259346008301
-4.01216030120849609 5.49970006942749023 4.80796623229980469 -0.576812088489532471 0.795248866081237793 -0.186727344989776611
-4.01208257675170898 5.49970006942749023 4.80792522430419922 -0.400221168994903564 0.859106481075286865 -0.31899687647819519
-4.01108455657958984 5.49970006942749023 4.80966949462890625 0.0748112723231315613 0.622298181056976318 0.779197096824645996
-4.01120996475219727 5.49970006942749023 4.8093266487121582 -0.283130228519439697 0.953364253044128418 0.1045650914311409
-4.01099920272827148 5.49970006942749023 4.8094024658203125 0.0456173047423362732 0.868631660938262939 0.493353843688964844
-4.01103591918945312 5.49970006942749023 4.80922412872314453 -0.0703819245100021362 0.997170448303222656 -0.0264085922390222549
-1.31112945079803467 5.49970006942749023 4.79825782775878906 0.2935294508934021 0.892785966396331787 0.341721683740615845
-1.31126415729522705 5.49970006942749023 4.79812335968017578 -0.119132250547409058 0.990789949893951416 -0.0643642619252204895
-1.3108450174331665 5.49970006942749023 4.79819679260253906 0.0573258921504020691 0.997724175453186035 -0.0354996882379055023
-4.87256526947021484 -0.687957048416137695 0.000300000014249235392 -0.214659824967384338 0.053500831127166748 -0.975222408771514893
-3.33481168746948242 3.29786896705627441 3.3002922534942627 -0.0932823792099952698 -0.0812821611762046814 -0.992316246032714844
-4.23549747467041016 5.49970006942749023 5.43926763534545898 -0.0509950593113899231 0.998697519302368164 -0.00164612324442714453
-0.000300000014249235392 3.64924049377441406 4.15202665328979492 0.994322061538696289 0.0764687433838844299 -0.0739997923374176025
-5.49970006942749023 3.76394987106323242 4.99366474151611328 -0.997131705284118652 0.0703894644975662231 -0.0278119929134845734
-4.31609439849853516 5.49970006942749023 4.94913673400878906 -0.353881925344467163 0.930367708206176758 -0.0958302021026611328
-4.31582927703857422 5.49970006942749023 4.94911575317382812 -0.0409438647329807281 0.99003136157989502 -0.134764611721038818
-5.49970006942749023 2.22887468338012695 4.17846393585205078 -0.996200680732727051 -0.055567767471075058 -0.06705503910779953
-0.000300000014249235392 3.48948287963867188 5.11791610717773438 0.912431776523590088 0.230594754219055176 0.338074415922164917
-5.22031784057617188 5.49970006942749023 3.1231987476348877 -0.292580544948577881 0.955034255981445312 -0.0480225645005702972
-5.22036457061767578 5.49970006942749023 3.12314987182617188 -0.41035190224647522 0.891884863376617432 -0.190138593316078186
-3.8052668571472168 1.47619509696960449 5.49970006942749023 0.0127474972978234291 -0.924096167087554932 0.381947249174118042
-3.80518198013305664 1.4768521785736084 5.49970006942749023 0.295105546712875366 -0.21295696496963501 0.93143010139465332
-3.80556964874267578 1.47683572769165039 5.49970006942749023 -0.177901297807693481 -0.243148565292358398 0.95353543758392334
-5.12314701080322266 5.49970006942749023 4.97008895874023438 0.116969853639602661 0.986986041069030762 0.110347099602222443
-5.12311458587646484 5.49970006942749023 4.96999263763427734 0.215919822454452515 0.955387234687805176 -0.201528474688529968
-0.000300000014249235392 3.34557628631591797 4.70610618591308594 0.996507406234741211 0.0722632408142089844 -0.0418444052338600159
-5.49970006942749023 4.330535888671875 4.65148353576660156 -0.998329639434814453 0.0453149229288101196 -0.0358375608921051025
-2.79357671737670898 3.21523189544677734 3.3002924919128418 0.274803727865219116 0.518847107887268066 -0.8094940185546875
-2.79388093948364258 3.21502137184143066 3.3002924919128418 -0.0600993447005748749 0.816062867641448975 -0.57482987642288208
-2.79381060600280762 3.21458554267883301 3.3002924919128418 0.128847956657409668 -0.0315097011625766754 -0.991163551807403564
-5.49970006942749023 1.5193030834197998 4.24288368225097656 -0.99799501895904541 -0.0386210791766643524 -0.0501427985727787018
-4.46716833114624023 5.49970006942749023 4.64557600021362305 -0.0252419225871562958 0.142067238688468933 0.989535093307495117
-4.46713447570800781 5.49970006942749023 4.64359569549560547 -0.0618608295917510986 0.93845820426940918 0.339807897806167603
-3.43615984916687012 5.49970006942749023 3.43720269203186035 -0.0421241968870162964 0.994544446468353271 -0.0954296514391899109
-5.49970006942749023 1.50210320949554443 3.76297664642333984 -0.993794918060302734 -0.084119744598865509 -0.0727695822715759277
-4.85763835906982422 2.82102823257446289 5.49970006942749023 -0.192429527640342712 0.116290226578712463 0.974395811557769775
-4.85765695571899414 2.82114672660827637 5.49970006942749023 -0.224604606628417969 0.445890426635742188 0.866449236869812012
-4.66846895217895508 4.75056076049804688 0.000300000014249235392 -0.367552250623703003 -0.221072867512702942 -0.903344988822937012
-3.42341828346252441 5.49970006942749023 1.82921719551086426 -0.709995865821838379 0.443910062313079834 -0.546671569347381592
-3.42292571067810059 5.49970006942749023 1.82942533493041992 0.038343336433172226 0.880175590515136719 -0.473096907138824463
-2.59764480590820312 5.49970006942749023 2.44865059852600098 -0.707216918468475342 0.218705564737319946 0.672318398952484131
-2.59679532051086426 5.49970006942749023 2.44777607917785645 -0.369333744049072266 0.917729377746582031 0.146168932318687439
-1.45920240879058838 5.49970006942749023 2.16512489318847656 -0.493685036897659302 0.742323100566864014 -0.453024744987487793
-1.45898532867431641 5.49970006942749023 2.16527628898620605 0.0583013147115707397 0.992765903472900391 -0.104960456490516663
-1.65946197509765625 5.49970006942749023 5.41413116455078125 0.0706183388829231262 0.997498631477355957 -0.00308609963394701481
-3.13910746574401855 5.49970006942749023 4.97061443328857422 -0.539297282695770264 0.552786350250244141 0.635283887386322021
-3.13882875442504883 5.49970006942749023 4.97040843963623047 -0.0414277128875255585 0.906870126724243164 0.419368952512741089
-3.74606513977050781 3.96670436859130859 3.30029201507568359 -0.0731971859931945801 0.635943055152893066 -0.768256962299346924
-3.60877823829650879 3.9577171802520752 3.30029201507568359 -0.124765850603580475 -0.0955800488591194153 -0.98757171630859375
-2.16376590728759766 5.49970006942749023 4.37614154815673828 0.00911804195493459702 0.998708665370941162 -0.0499780327081680298
-3.24191808700561523 5.49970006942749023 5.32044792175292969 -0.985488176345825195 0.161360204219818115 0.0526864007115364075
-3.24024081230163574 5.49970006942749023 5.32029819488525391 -0.452729523181915283 0.87886345386505127 -0.150449410080909729
-3.23959159851074219 5.49970006942749023 5.32007789611816406 -0.0524089746177196503 0.998605847358703613 -0.00628917478024959564
-0.000300000014249235392 0.477697849273681641 4.52999496459960938 0.995463967323303223 -0.0866699069738388062 -0.0392399728298187256
-2.09728550910949707 5.49970006942749023 0.894078254699707031 -0.588581442832946777 0.757047533988952637 -0.283638715744018555
-2.09705185890197754 5.49970006942749023 0.894152522087097168 0.00166623026598244905 0.991992712020874023 -0.126283749938011169
-3.75135517120361328 5.49970006942749023 3.94633269309997559 -0.609864771366119385 0.643321812152862549 0.462819695472717285
-3.75107288360595703 5.49970006942749023 3.94615340232849121 -0.00669982098042964935 0.992652654647827148 0.120812751352787018
-5.49970006942749023 1.40379965305328369 4.95006561279296875 -0.996846914291381836 -0.0761486813426017761 -0.0223047472536563873
-5.15268659591674805 1.32386577129364014 0.000300000014249235392 -0.121734790503978729 0.830212116241455078 -0.543992996215820312
-5.15271854400634766 1.32344067096710205 0.000300000014249235392 -0.313253968954086304 0.103057593107223511 -0.944060921669006348
-5.15184211730957031 1.32341182231903076 0.000300000014249235392 -0.0535055175423622131 -0.029132302850484848 -0.998142480850219727
-5.49970006942749023 0.746669530868530273 3.27671599388122559 -0.99420475959777832 -0.0644237324595451355 -0.0860610231757164001
-0.000300000014249235392 2.61303901672363281 3.31412577629089355 0.994361698627471924 0.00925139803439378738 -0.10563727468252182
-0.000300000014249235392 3.13482069969177246 4.92319583892822266 0.998699069023132324 0.0394036844372749329 -0.0323623567819595337
-0.466176271438598633 5.44677639007568359 0.000300000014249235392 -0.255786776542663574 0.151415616273880005 -0.954801738262176514
-0.465697526931762695 5.44652462005615234 0.000300000014249235392 0.049879368394613266 -0.00705717969685792923 -0.998730242252349854
-0.84161674976348877 5.49970006942749023 1.66066694259643555 -0.588774025440216064 0.757351577281951904 -0.282424688339233398
-0.841371297836303711 5.49970006942749023 1.66074228286743164 0.040597178041934967 0.991870343685150146 -0.120602741837501526
-2.60229754447937012 5.49970006942749023 4.78233766555786133 0.180701375007629395 0.774041354656219482 -0.606800556182861328
-2.60243105888366699 5.49970006942749023 4.78314590454101562 0.176126301288604736 0.976821303367614746 -0.121653102338314056
-2.71905279159545898 3.19782280921936035 2.99087810516357422 -0.72670292854309082 0.674004733562469482 0.132742330431938171
-2.71892142295837402 3.19739937782287598 2.99072933197021484 -0.975650250911712646 -0.0443256348371505737 -0.214806497097015381
-1.60673463344573975 4.34906816482543945 0.000300000014249235392 0.0204694103449583054 0.0493841543793678284 -0.998570024967193604
-2.8685457706451416 5.49970006942749023 5.20709705352783203 -0.0200377386063337326 0.976060450077056885 -0.216574534773826599
-2.86837172508239746 5.49970006942749023 5.20688056945800781 0.288776814937591553 0.60494077205657959 -0.742061078548431396
-2.86850404739379883 5.49970006942749023 5.20723915100097656 0.0354095436632633209 0.998839914798736572 -0.0326326414942741394
-2.72276186943054199 3.75255393981933594 0.000300000014249235392 0.252576529979705811 0.157391473650932312 -0.954689979553222656
-2.72288227081298828 3.75236225128173828 0.000300000014249235392 0.193648248910903931 -0.0776550397276878357 -0.977992832660675049
-2.39200949668884277 5.49970006942749023 3.16136622428894043 0.00464737974107265472 0.990128993988037109 -0.140081331133842468
-0.91087806224822998 5.49970006942749023 4.04734230041503906 0.083751969039440155 0.996482729911804199 -0.0027842146810144186
-0.370474815368652344 5.49970006942749023 5.33505868911743164 0.620269656181335449 0.766473174095153809 0.166686311364173889
-0.37156224250793457 5.49970006942749023 5.33392620086669922 0.163663744926452637 0.984645605087280273 0.0607218332588672638
-0.000300000014249235392 5.13494729995727539 1.49832034111022949 0.91378939151763916 -0.188993304967880249 -0.359541982412338257
-3.5046238899230957 2.70031428337097168 1.68858671188354492 -0.575756847858428955 0.326306045055389404 0.749685466289520264
-3.50442194938659668 2.70037698745727539 1.68812429904937744 -0.50761944055557251 0.861473917961120605 0.0136040905490517616
-3.34570646286010742 5.49970006942749023 4.95927190780639648 -0.143362239003181458 0.968850970268249512 -0.201928481459617615
-0.000300000014249235392 3.11009979248046875 0.411005258560180664 0.989466547966003418 0.0254733413457870483 -0.1425027996301651
-4.38821077346801758 5.49970006942749023 4.43188619613647461 -0.361468285322189331 0.853716731071472168 -0.374844521284103394
-4.3881077766418457 5.49970006942749023 4.43200302124023438 -0.0794419050216674805 0.995598673820495605 -0.0497215352952480316
-1.97560358047485352 5.49970006942749023 5.33800792694091797 -0.459734588861465454 0.822359144687652588 0.335215598344802856
-1.97503435611724854 5.49970006942749023 5.33790111541748047 0.322832971811294556 0.797163069248199463 0.510205507278442383
-1.9752049446105957 5.49970006942749023 5.33776330947875977 -0.159115567803382874 0.971466183662414551 0.175884932279586792
-0.000300000014249235392 3.69265389442443848 1.7686767578125 0.993281722068786621 0.0277786478400230408 -0.112337350845336914
-0.000300000014249235392 1.24316227436065674 5.45723438262939453 0.999768614768981934 -0.0214999355375766754 -0.000508277909830212593
-2.37644505500793457 5.49970006942749023 2.75143933296203613 0.0412780046463012695 0.994421720504760742 -0.0970641523599624634
-5.13573646545410156 1.31946277618408203 0.000300000014249235392 -0.0574805364012718201 -0.0184940863400697708 -0.998175263404846191
-1.88517856597900391 5.49970006942749023 5.3187255859375 0.420219302177429199 0.849684059619903564 0.318516463041305542
-1.88558053970336914 5.49970006942749023 5.3184051513671875 0.0403919443488121033 0.999137341976165771 0.00964357517659664154
-3.14337801933288574 1.15143179893493652 0.000300000014249235392 0.433818936347961426 0.101911626756191254 -0.895217835903167725
-3.14355015754699707 1.15148961544036865 0.000300000014249235392 -0.0847323313355445862 0.291987031698226929 -0.952661454677581787
-3.14353704452514648 1.15124797821044922 0.000300000014249235392 -0.144989013671875 0.025006147101521492 -0.989117145538330078
-3.14350056648254395 1.1512293815612793 0.000300000014249235392 -0.0249060448259115219 -0.0364650636911392212 -0.999024510383605957
-0.000300000014249235392 3.721588134765625 3.00127744674682617 0.993198096752166748 0.0661845803260803223 -0.0957975760102272034
-2.33629655838012695 2.12427926063537598 1.65029633045196533 0.309223324060440063 -0.220975920557975769 -0.924959778785705566
-2.33649897575378418 2.12440276145935059 1.65029633045196533 -0.317681670188903809 0.161716446280479431 -0.934305131435394287
-2.33582925796508789 2.12370634078979492 1.65029633045196533 0.118643984198570251 -0.453879892826080322 -0.883128821849822998
-2.33594179153442383 2.12399888038635254 1.65029633045196533 -0.00957099441438913345 -0.0171465519815683365 -0.999807119369506836
-2.99771595001220703 3.5459132194519043 3.3002922534942627 0.822630107402801514 0.53939509391784668 -0.17981293797492981
-2.9989469051361084 3.5450446605682373 3.3002922534942627 0.426147371530532837 0.095436491072177887 -0.899605631828308105
-2.99907398223876953 3.54348921775817871 3.3002922534942627 0.83471977710723877 0.0792801529169082642 -0.544938087463378906
-2.99933290481567383 3.54329800605773926 3.30029201507568359 0.514814376831054688 -0.378096699714660645 -0.769421219825744629
-5.09086132049560547 2.57072639465332031 5.49970006942749023 0.231560170650482178 -0.321522742509841919 0.918151915073394775
-5.09093952178955078 2.57074332237243652 5.49970006942749023 -0.0101434243842959404 -0.281924694776535034 0.959382891654968262
-2.48998928070068359 4.57022857666015625 0.000300000014249235392 0.10896524041891098 0.0795379951596260071 -0.990858316421508789
-5.49970006942749023 0.685415267944335938 2.52017784118652344 -0.993118524551391602 -0.0640510097146034241 -0.0980462506413459778
-0.00382399559020996094 1.54884839057922363 0.000300000014249235392 0.3961334228515625 0.256845802068710327 -0.881537556648254395
-2.58261489868164062 5.49970006942749023 1.81795668601989746 -0.577956736087799072 0.521381258964538574 -0.627795815467834473
-2.5823516845703125 5.49970006942749023 1.81833863258361816 -0.224651515483856201 0.972076833248138428 0.0678109079599380493
-0.000300000014249235392 4.77983474731445312 3.0648651123046875 0.994404196739196777 0.0822738856077194214 -0.0662662014365196228
-5.49970006942749023 2.36174917221069336 4.70157337188720703 -0.997301280498504639 -0.0493305511772632599 -0.0543741025030612946
-5.49970006942749023 5.08650684356689453 4.42483854293823242 -0.99642646312713623 0.0725850686430931091 -0.0431932993233203888
-2.72334575653076172 3.21166205406188965 2.1751708984375 -0.83435356616973877 0.0341130644083023071 -0.550173044204711914
-2.72331118583679199 3.21155023574829102 2.17569923400878906 -0.966967344284057617 0.020172707736492157 -0.254100710153579712
-5.07814788818359375 0.858033657073974609 0.000300000014249235392 0.383734643459320068 0.555716574192047119 -0.737513899803161621
-2.89844226837158203 3.27469825744628906 3.3002922534942627 -0.134906172752380371 0.531329929828643799 -0.836354494094848633
-2.8985283374786377 3.27452707290649414 3.3002924919128418 -0.408334076404571533 0.0590846054255962372 -0.910918354988098145
-5.49970006942749023 3.14881420135498047 4.91863155364990234 -0.99894106388092041 0.0400468744337558746 -0.0226448997855186462
-0.000300000014249235392 1.71976470947265625 0.739781618118286133 0.991964101791381836 -0.0345377735793590546 -0.121714301407337189
-0.000300000014249235392 2.56763672828674316 4.80188560485839844 0.998837709426879883 -0.00800096243619918823 -0.0475304834544658661
-5.49970006942749023 1.25821483135223389 0.681665897369384766 -0.988073110580444336 -0.099512539803981781 -0.117510028183460236
-3.61140298843383789 4.20692539215087891 3.30029201507568359 -0.385398536920547485 0.0065731564536690712 -0.922726809978485107
-3.61129188537597656 4.20693826675415039 3.30029201507568359 -0.0467656217515468597 0.0496127419173717499 -0.99767303466796875
-2.6726069450378418 5.49970006942749023 2.43190598487854004 -0.382823795080184937 0.897960960865020752 0.217052936553955078
-2.67251348495483398 5.49970006942749023 2.43176126480102539 -0.110751688480377197 0.966221809387207031 -0.232700318098068237
-1.82785046100616455 2.48071146011352539 1.65029633045196533 0.0470972098410129547 -0.0141784856095910072 -0.998789668083190918
-3.19643402099609375 3.22085237503051758 3.3002924919128418 -0.371174901723861694 0.797792375087738037 -0.475138455629348755
-3.19623661041259766 3.22043180465698242 3.3002924919128418 -0.118321925401687622 0.266347050666809082 -0.95658719539642334
-3.19730377197265625 3.21841764450073242 3.3002924919128418 -0.745791256427764893 -0.628440141677856445 -0.221039354801177979
-3.19636726379394531 3.2191162109375 3.3002924919128418 -0.219875678420066833 -0.44654276967048645 -0.867325901985168457
-5.49970006942749023 0.102490901947021484 4.17061567306518555 -0.995293736457824707 -0.0867478623986244202 -0.0431856587529182434
-4.08661842346191406 3.0089867115020752 3.3002924919128418 -0.576618075370788574 0.156541794538497925 -0.801876664161682129
-3.24847173690795898 3.3146970272064209 3.3002922534942627 0.0872170627117156982 0.207489371299743652 -0.974341392517089844
-2.86173462867736816 3.6577761173248291 2.38073873519897461 -0.994174003601074219 -0.0980829894542694092 -0.0446961075067520142
-1.19736826419830322 5.49970006942749023 3.47326087951660156 0.0811704695224761963 0.989660859107971191 0.118248596787452698
-5.49970006942749023 2.47101831436157227 5.02276420593261719 -0.999701738357543945 -0.0139148756861686707 -0.0200683269649744034
-4.49354076385498047 0.152609586715698242 0.000300000014249235392 0.316105633974075317 0.0926313847303390503 -0.94419097900390625
-4.49486780166625977 0.152814626693725586 0.000300000014249235392 -0.835795342922210693 0.419645071029663086 -0.354039669036865234
-4.49422168731689453 0.152512073516845703 0.000300000014249235392 -0.199312135577201843 0.170054540038108826 -0.965067863464355469
-0.24407958984375 5.49970006942749023 3.97615814208984375 0.0993992239236831665 0.993965625762939453 -0.046389412134885788
-5.49970006942749023 0.725625276565551758 4.75359106063842773 -0.997957229614257812 -0.0533534102141857147 -0.0351358018815517426
-0.0412285327911376953 5.49970006942749023 4.00803899765014648 0.0925460830330848694 0.993984460830688477 -0.0585662834346294403
-0.000300000014249235392 2.02791714668273926 4.93114662170410156 0.997744917869567871 -0.0534354373812675476 -0.0406138822436332703
-0.000300000014249235392 0.858979105949401855 5.00541019439697266 0.993908703327178955 -0.108494758605957031 -0.0193452220410108566
-4.48266506195068359 5.49970006942749023 4.25555944442749023 -0.0545116178691387177 0.997112393379211426 -0.0528694689273834229
-4.57557010650634766 5.49970006942749023 5.44693279266357422 -0.0798675119876861572 0.996805131435394287 -0.000787219556514173746
-0.000300000014249235392 -0.808176517486572266 3.03897857666015625 0.990680277347564697 -0.113038450479507446 -0.0759915411472320557
-1.93934917449951172 5.31590175628662109 0.000300000014249235392 0.0235647819936275482 0.0859531015157699585 -0.99602043628692627
-5.49970006942749023 4.25555229187011719 4.80693626403808594 -0.994295716285705566 0.101885735988616943 -0.0315495915710926056
-0.000300000014249235392 1.2147907018661499 4.46781349182128906 0.997377157211303711 -0.0388621501624584198 -0.0610606260597705841
-4.60866212844848633 5.49970006942749023 5.17856121063232422 0.180481806397438049 0.849129438400268555 0.496392428874969482
-4.6088719367980957 5.49970006942749023 5.17836284637451172 -0.229826584458351135 0.757077515125274658 0.611566245555877686
-4.60873603820800781 5.49970006942749023 5.17816781997680664 0.146623328328132629 0.977135658264160156 0.153971955180168152
-1.22964048385620117 5.49970006942749023 3.67368316650390625 0.275496900081634521 0.897030115127563477 0.345598518848419189
-4.73396492004394531 5.49970006942749023 4.67717361450195312 -0.324666678905487061 0.914996504783630371 -0.239526525139808655
-4.73365879058837891 5.49970006942749023 4.67724084854125977 0.0340814925730228424 0.9821968674659729 -0.184736892580986023
-4.73383951187133789 5.49970006942749023 4.67748641967773438 0.275204360485076904 0.689865469932556152 -0.669587910175323486
-4.73394203186035156 5.49970006942749023 4.67762041091918945 0.050343584269285202 0.884516239166259766 -0.463784933090209961
-4.73396158218383789 5.49970006942749023 4.67820978164672852 0.145403966307640076 0.856866896152496338 0.49460756778717041
-4.73402881622314453 5.49970006942749023 4.67802619934082031 -0.0546482019126415253 0.997912824153900146 -0.0344017855823040009
-2.89794468879699707 5.49970006942749023 4.21394252777099609 -0.295612633228302002 0.839470148086547852 -0.455963671207427979
-2.89736413955688477 5.49970006942749023 4.21537399291992188 -0.033204939216375351 0.99697422981262207 -0.0702842175960540771
-5.49970006942749023 4.30425500869750977 4.49319124221801758 -0.993181347846984863 0.107834920287132263 -0.044298216700553894
-1.00137591361999512 5.44309234619140625 5.49970006942749023 -0.778185188770294189 0.177470281720161438 0.602438449859619141
-1.00104808807373047 5.44315147399902344 5.49970006942749023 -0.175482138991355896 0.436021357774734497 0.882661581039428711
-1.59158706665039062 3.07512617111206055 0.000300000014249235392 0.157937943935394287 0.0711124390363693237 -0.984885096549987793
-4.34936761856079102 5.49970006942749023 4.16482639312744141 -0.302602231502532959 0.89075934886932373 -0.339086472988128662
-4.34868907928466797 5.49970006942749023 4.16574430465698242 -0.169928982853889465 0.982074379920959473 -0.0815723836421966553
-5.49970006942749023 1.62258327007293701 1.84665441513061523 -0.980386316776275635 -0.188077867031097412 0.058901660144329071
-2.23185038566589355 2.24944734573364258 1.65029633045196533 -0.355252861976623535 -0.354796797037124634 -0.864820539951324463
-2.23146820068359375 2.24977374076843262 1.65029633045196533 0.044677387923002243 -0.0296825245022773743 -0.99856036901473999
-5.49970006942749023 1.30262446403503418 0.552896499633789062 -0.990026473999023438 -0.0318353772163391113 -0.13723696768283844
-0.0607922077178955078 5.49970006942749023 4.48290634155273438 -0.0715003684163093567 0.979022383689880371 -0.190795481204986572
-0.0607590675354003906 5.49970006942749023 4.48320341110229492 0.292582929134368896 0.90139007568359375 0.31920391321182251
-0.0609345436096191406 5.49970006942749023 4.48312759399414062 -0.251175522804260254 0.963056862354278564 0.0971199050545692444
-2.28409576416015625 5.49970006942749023 2.37282896041870117 0.236082077026367188 0.957477807998657227 0.165835171937942505
-2.28425264358520508 5.49970006942749023 2.37261128425598145 0.0402547009289264679 0.992410898208618164 -0.116189770400524139
-0.000300000014249235392 0.455724239349365234 4.71125125885009766 0.995715200901031494 -0.0854832008481025696 -0.0352670252323150635
-5.49970006942749023 1.85593271255493164 3.65133094787597656 -0.994085550308227539 -0.0427563674747943878 -0.0998289957642555237
-0.000300000014249235392 3.76580667495727539 4.74995326995849609 0.993983626365661621 0.101352930068969727 -0.0415202341973781586
-3.50185728073120117 3.45682597160339355 5.49970006942749023 -0.164148345589637756 -0.112828746438026428 0.979961752891540527
-3.50173068046569824 3.45726990699768066 5.49970006942749023 -0.121210873126983643 0.599098563194274902 0.791447162628173828
-3.50167465209960938 3.45705103874206543 5.49970006942749023 0.033060707151889801 0.0269792899489402771 0.99908912181854248
-5.49970006942749023 1.2389829158782959 3.19942212104797363 -0.994674026966094971 -0.0483562387526035309 -0.0910231694579124451
-2.26740694046020508 2.54809761047363281 1.65029633045196533 -0.407083868980407715 0.0248339436948299408 -0.913053154945373535
-2.2667696475982666 2.54769372940063477 1.65029633045196533 0.0679427385330200195 -0.0092775542289018631 -0.997646033763885498
-5.49970006942749023 -0.660403728485107422 3.34551405906677246 -0.993025660514831543 -0.101009197533130646 -0.0608036071062088013
-2.29714131355285645 5.49970006942749023 3.14407992362976074 0.0992735251784324646 0.983395695686340332 -0.151912927627563477
-2.29722189903259277 5.49970006942749023 3.14402055740356445 0.38290366530418396 0.914126038551330566 0.133260369300842285
-2.2973635196685791 5.49970006942749023 3.14389586448669434 -0.0515784099698066711 0.963996827602386475 -0.260863304138183594
-0.000300000014249235392 2.76563310623168945 1.76350188255310059 0.992643475532531738 -0.00384481181390583515 -0.121012993156909943
-5.49970006942749023 2.24433612823486328 3.89078211784362793 -0.997371554374694824 -0.00535211106762290001 -0.0722584202885627747
-2.97958064079284668 2.73119497299194336 0.000300000014249235392 -0.0837513208389282227 -0.0667855218052864075 -0.994246125221252441
-2.67150092124938965 5.49970006942749023 4.14311027526855469 0.018416285514831543 0.997839808464050293 -0.0630599334836006165
-5.49970006942749023 5.45831680297851562 3.93167710304260254 -0.992926239967346191 0.106366872787475586 -0.0527588129043579102
-2.59500503540039062 2.0796058177947998 0.118286430835723877 0.888765692710876465 -0.456244349479675293 -0.0440067499876022339
-2.92432427406311035 2.88032865524291992 2.32787108421325684 -0.297434151172637939 0.942377328872680664 -0.153159350156784058
-2.43461728096008301 -0.0332236289978027344 0.000300000014249235392 0.248007908463478088 0.515125036239624023 -0.820449948310852051
-0.000300000014249235392 3.73729181289672852 2.33344316482543945 0.991659343242645264 0.0383614115417003632 -0.123044975101947784
-3.53454375267028809 5.49970006942749023 5.29825496673583984 0.0836159065365791321 0.938444018363952637 -0.335158318281173706
-3.53465795516967773 5.49970006942749023 5.29837751388549805 -0.279454290866851807 0.958857536315917969 0.0499732568860054016
-0.000300000014249235392 0.630957365036010742 3.8059232234954834 0.993265748023986816 -0.0971686840057373047 -0.0630973726511001587
-3.90015172958374023 0.679929733276367188 0.000300000014249235392 0.595528066158294678 0.333273172378540039 -0.730941295623779297
-3.90188479423522949 0.678834676742553711 0.000300000014249235392 0.365623921155929565 0.0550514645874500275 -0.929133176803588867
-3.17915606498718262 1.07614290714263916 0.000300000014249235392 -0.133173391222953796 0.233216896653175354 -0.963262438774108887
-3.17911434173583984 1.07605326175689697 0.000300000014249235392 0.000456784793641418219 -0.0566388927400112152 -0.998394548892974854
-3.00427341461181641 0.146852970123291016 0.000300000014249235392 -0.0353406704962253571 -0.254220843315124512 -0.966500222682952881
-3.55167269706726074 2.21604204177856445 0.000300000014249235392 -0.665387511253356934 0.496953576803207397 -0.55704265832901001
-3.55133152008056641 2.21577835083007812 0.000300000014249235392 -0.0573591962456703186 0.0122389243915677071 -0.998278558254241943
-3.55108642578125 2.21610355377197266 0.000300000014249235392 -0.027161700651049614 0.266436845064163208 -0.963469564914703369
-3.55105209350585938 2.21565008163452148 0.000300000014249235392 -0.349269986152648926 0.0505657531321048737 -0.935656726360321045
-3.55091142654418945 2.21561789512634277 0.000300000014249235392 0.0958874523639678955 -0.0528075136244297028 -0.99399036169052124
-0.000300000014249235392 3.45923900604248047 3.65020036697387695 0.996677398681640625 0.0373956337571144104 -0.0723572671413421631
-0.482220649719238281 5.49970006942749023 4.71602392196655273 -0.589618265628814697 0.806290864944458008 0.0473855659365653992
-0.482020139694213867 5.49970006942749023 4.71597766876220703 -0.0624054372310638428 0.993556976318359375 -0.0946052223443984985
-0.481645584106445312 5.49970006942749023 4.71602249145507812 0.0585159733891487122 0.984863042831420898 0.163157925009727478
-0.481594324111938477 5.49970006942749023 4.71593761444091797 0.223323255777359009 0.968173384666442871 -0.112990789115428925
-0.482183694839477539 5.49970006942749023 4.7163395881652832 0.104251876473426819 0.993996322154998779 -0.0332076065242290497
-4.09792852401733398 2.03357028961181641 0.000300000014249235392 0.213741958141326904 0.310279488563537598 -0.926304996013641357
-4.09804534912109375 2.03351330757141113 0.000300000014249235392 -0.155097424983978271 0.141603246331214905 -0.977697908878326416
-5.49970006942749023 1.30548429489135742 5.40380382537841797 -0.996917545795440674 -0.0784041211009025574 -0.002837018808349967
-0.882398605346679688 5.49970006942749023 2.9309389591217041 -0.0391911342740058899 0.963807463645935059 -0.263702541589736938
-0.882186412811279297 5.49970006942749023 2.9312593936920166 0.270154029130935669 0.960846364498138428 0.0615708678960800171
-0.882251977920532227 5.49970006942749023 2.93121075630187988 0.0618017464876174927 0.993337035179138184 -0.0972733944654464722
-4.98940277099609375 5.49970006942749023 5.09006214141845703 -0.76082843542098999 0.474011600017547607 -0.443230330944061279
-4.9890599250793457 5.49970006942749023 5.09039306640625 -0.41522100567817688 0.897102236747741699 0.150993272662162781
-0.384680032730102539 5.49970006942749023 5.15930938720703125 0.698286533355712891 0.478966891765594482 -0.531964719295501709
-0.384905576705932617 5.49970006942749023 5.15962743759155273 0.576258420944213867 0.816284239292144775 -0.0400771424174308777
-0.385530948638916016 5.49970006942749023 5.15973043441772461 0.0724400952458381653 0.997313141822814941 -0.0108989756554365158
-3.09041166305541992 -0.885392904281616211 0.000300000014249235392 -0.288860857486724854 0.412095725536346436 -0.864139139652252197
-3.0903315544128418 -0.88554072380065918 0.000300000014249235392 -0.0677667632699012756 -0.0159393809735774994 -0.997573792934417725
-3.09053683280944824 -0.885558128356933594 0.000300000014249235392 -0.407935768365859985 0.0865621194243431091 -0.908897876739501953
-3.09048128128051758 -0.88562464714050293 0.000300000014249235392 -0.253099769353866577 -0.121333159506320953 -0.959801375865936279
-3.0901796817779541 -0.886649608612060547 0.000300000014249235392 0.13440878689289093 -0.927286088466644287 -0.349391788244247437
-3.09039068222045898 -0.8860321044921875 0.000300000014249235392 -0.26416429877281189 -0.493456244468688965 -0.828684508800506592
-3.09011483192443848 -0.885546207427978516 0.000300000014249235392 -0.0223000645637512207 -0.0812295302748680115 -0.996445834636688232
-3.59234738349914551 5.49970006942749023 4.42347383499145508 0.531368434429168701 0.797576069831848145 -0.285517126321792603
-3.59255123138427734 5.49970006942749023 4.42356300354003906 -0.0136833125725388527 0.998137354850769043 -0.059451766312122345
-2.13573122024536133 2.96763134002685547 0.000300000014249235392 -0.135126650333404541 0.39770197868347168 -0.907509684562683105
-2.1351320743560791 2.96686744689941406 0.000300000014249235392 0.288659185171127319 0.683117449283599854 -0.670839965343475342
-2.13525962829589844 2.96656465530395508 0.000300000014249235392 0.00445600133389234543 0.0087376721203327179 -0.999951839447021484
-0.000300000014249235392 0.600321531295776367 3.96638679504394531 0.99615776538848877 -0.0617811568081378937 -0.062069576233625412
-5.49970006942749023 2.6343998908996582 4.75176763534545898 -0.998159408569335938 0.0461203455924987793 -0.0393783822655677795
-1.5032813549041748 4.41591072082519531 0.000300000014249235392 -0.0510375797748565674 0.0400989986956119537 -0.99789130687713623
-2.76573801040649414 5.08407115936279297 0.000300000014249235392 -0.401377320289611816 0.106518179178237915 -0.909697771072387695
-4.94147205352783203 5.49970006942749023 4.05447578430175781 0.150729089975357056 0.938644051551818848 0.310206383466720581
-4.94154071807861328 5.49970006942749023 4.05435848236083984 -0.068599991500377655 0.995792865753173828 -0.0607502162456512451
-0.517890214920043945 2.23212480545043945 0.000300000014249235392 -0.195020347833633423 -0.088976055383682251 -0.976754963397979736
-0.517808437347412109 2.2321467399597168 0.000300000014249235392 0.0731541141867637634 -0.0177975893020629883 -0.997161805629730225
-1.78107249736785889 1.64339923858642578 3.04876852035522461 -0.0874951034784317017 0.0618035309016704559 -0.99424588680267334
-4.80233335494995117 5.49970006942749023 4.90500164031982422 -0.35897180438041687 0.685817480087280273 0.633082687854766846
-4.80227851867675781 5.49970006942749023 4.90467453002929688 -0.318066984415054321 0.934792280197143555 -0.158103451132774353
-4.8028717041015625 5.49970006942749023 4.90486907958984375 -0.926420867443084717 0.364294916391372681 -0.0950451940298080444
-4.80224990844726562 5.49970006942749023 4.90503740310668945 -0.411061972379684448 0.872988700866699219 0.262523531913757324
-4.18760871887207031 0.21271061897277832 0.000300000014249235392 0.104746811091899872 0.0554952770471572876 -0.992949247360229492
-3.33349514007568359 4.49422216415405273 5.49970006942749023 0.0211300775408744812 0.106231570243835449 0.994116783142089844
-3.26831579208374023 5.49970006942749023 4.86301946640014648 0.742696762084960938 0.542938947677612305 0.391942292451858521
-3.2686920166015625 5.49970006942749023 4.86277580261230469 0.111749418079853058 0.989627242088317871 -0.0902769863605499268
-2.88147902488708496 3.72142505645751953 2.02141189575195312 -0.990967512130737305 -0.0936345085501670837 -0.0959997549653053284
-2.88146543502807617 3.72138118743896484 2.02137875556945801 -0.89322817325592041 -0.202558353543281555 -0.401389420032501221
-2.88147616386413574 3.72141551971435547 2.02152776718139648 -0.992829501628875732 -0.105787597596645355 0.0556640401482582092
-3.38615536689758301 4.04387092590332031 3.30029201507568359 0.240566492080688477 0.319781631231307983 -0.916442751884460449
-3.38674449920654297 4.0432744026184082 3.30029201507568359 -0.105207242071628571 -0.167473927140235901 -0.980246841907501221
-3.38673162460327148 4.04335403442382812 3.30029201507568359 -0.0638310536742210388 0.0943400710821151733 -0.993491530418395996
-0.000300000014249235392 2.94765591621398926 4.70897769927978516 0.999293208122253418 0.0111972363665699959 -0.0358803346753120422
-0.000300000014249235392 0.178245306015014648 5.40578269958496094 0.994660377502441406 -0.103140898048877716 -0.00356566556729376316
-0.000300000014249235392 4.62705707550048828 3.42988300323486328 0.995735645294189453 0.0525378361344337463 -0.0758300647139549255
-2.99252033233642578 5.49970006942749023 2.46015286445617676 0.177625030279159546 0.981184482574462891 -0.0756720453500747681
-0.18160700798034668 5.49970006942749023 5.27356338500976562 0.0145996380597352982 0.996779680252075195 0.0788488388061523438
-3.38635134696960449 3.73038601875305176 3.3002922534942627 -0.29116290807723999 -0.123067170381546021 -0.948724746704101562
-0.000300000014249235392 0.861830711364746094 5.29712581634521484 0.998613834381103516 -0.0515326038002967834 -0.0107066137716174126
-5.49970006942749023 4.494720458984375 2.88825416564941406 -0.991778016090393066 0.0639614760875701904 -0.110837943851947784
-0.000300000014249235392 1.30609190464019775 4.46624660491943359 0.996243596076965332 -0.058146648108959198 -0.0641680508852005005
-4.27542638778686523 5.49970006942749023 5.1012730598449707 -0.214534640312194824 0.942044615745544434 0.257927834987640381
-4.27527952194213867 5.49970006942749023 5.10094356536865234 -0.220226749777793884 0.839708447456359863 -0.496376663446426392
-4.27516651153564453 5.49970006942749023 5.10116052627563477 0.113199315965175629 0.985078692436218262 0.12963731586933136
-5.49970006942749023 4.04428195953369141 4.9831233024597168 -0.998565256595611572 0.0473178327083587646 -0.0250673405826091766
-5.49970006942749023 4.63068103790283203 3.71141266822814941 -0.991796195507049561 0.107848316431045532 -0.0686225369572639465
-5.49970006942749023 1.07480919361114502 3.04169940948486328 -0.995067715644836426 -0.0468443818390369415 -0.0874401405453681946
-0.000300000014249235392 2.32010650634765625 5.45886564254760742 0.925666093826293945 0.268417716026306152 -0.266634732484817505
-5.49970006942749023 0.50306248664855957 2.36805081367492676 -0.99143064022064209 -0.0842414200305938721 -0.0998430997133255005
-0.000300000014249235392 1.9672398567199707 5.0851287841796875 0.999500274658203125 -0.0244776532053947449 -0.0199981927871704102
-5.09455680847167969 -0.804113864898681641 0.000300000014249235392 -0.523818790912628174 0.0598095431923866272 -0.849727392196655273
-5.09434127807617188 -0.804162263870239258 0.000300000014249235392 0.101162724196910858 -0.0900605171918869019 -0.990785121917724609
-0.000300000014249235392 2.45056295394897461 2.73744702339172363 0.994707465171813965 0.0291049238294363022 -0.0985384732484817505
-0.0769760608673095703 5.49970006942749023 4.63503551483154297 0.453621208667755127 0.791119813919067383 -0.41031348705291748
-0.0773553848266601562 5.49970006942749023 4.63515853881835938 0.331197559833526611 0.561873257160186768 -0.758028090000152588
-0.0775027275085449219 5.49970006942749023 4.63555335998535156 0.097418464720249176 0.994727969169616699 -0.0320301689207553864
-3.77687644958496094 5.49970006942749023 5.39105510711669922 -0.239771738648414612 0.964841723442077637 -0.107656568288803101
-3.77682137489318848 5.49970006942749023 5.39108753204345703 -0.0644055455923080444 0.997914910316467285 -0.00419136090204119682
-1.25678753852844238 3.68543076515197754 0.000300000014249235392 -0.0446129962801933289 0.0473725572228431702 -0.997880458831787109
-1.25673222541809082 3.68543481826782227 0.000300000014249235392 0.0307137910276651382 0.0527719259262084961 -0.998134136199951172
-5.49970006942749023 1.71285271644592285 2.98028755187988281 -0.993361592292785645 -0.0604195557534694672 -0.0978891327977180481
-0.477305173873901367 5.49970006942749023 0.00247240066528320312 -0.208037331700325012 0.964736044406890869 0.16125941276550293
-0.477459430694580078 5.49970006942749023 0.00243592262268066406 -0.58886253833770752 0.807393431663513184 0.0368336625397205353
-0.443498134613037109 5.47972202301025391 0.000300000014249235392 -0.215996056795120239 0.342532217502593994 -0.914339780807495117
-3.51376700401306152 2.7059626579284668 3.3002924919128418 0.057575225830078125 -0.41294550895690918 -0.908933937549591064
-3.5138709545135498 2.70601177215576172 3.3002924919128418 -0.262723922729492188 -0.268692433834075928 -0.926704049110412598
-3.5130760669708252 2.70607113838195801 3.3002924919128418 0.746347308158874512 -0.256226927042007446 -0.614258468151092529
-3.51345562934875488 2.70611572265625 3.3002924919128418 -0.0493399351835250854 -0.258937656879425049 -0.964632987976074219
-5.49970006942749023 3.5436091423034668 4.18077945709228516 -0.933066427707672119 0.24773503839969635 0.260795503854751587
-3.51319169998168945 2.7070622444152832 3.3002924919128418 0.00907601788640022278 0.0419262275099754333 -0.999079406261444092
-4.13817501068115234 5.49970006942749023 5.32292318344116211 -0.822472095489501953 0.566814243793487549 0.0475518777966499329
-4.13776016235351562 5.49970006942749023 5.32289981842041016 -0.067832358181476593 0.997670292854309082 0.00726046040654182434
-0.693720579147338867 3.20248532295227051 0.000300000014249235392 0.0416495203971862793 0.037493877112865448 -0.998428523540496826
-5.49970006942749023 0.814266324043273926 1.9905400276184082 -0.993096590042114258 -0.0418460331857204437 -0.109581664204597473
-0.000300000014249235392 2.70125555992126465 4.31745815277099609 0.997218847274780273 -0.0108432900160551071 -0.0737352669239044189
-0.960784316062927246 5.49970006942749023 2.9667813777923584 -0.698984801769256592 0.71280592679977417 0.0576878413558006287
-0.960466384887695312 5.49970006942749023 2.96672868728637695 0.0787901580333709717 0.992482960224151611 -0.0936461687088012695
-0.000300000014249235392 2.41323447227478027 5.13373994827270508 0.999635934829711914 0.00103822094388306141 -0.0269603077322244644
-1.15893864631652832 5.49970006942749023 4.74725055694580078 0.033440612256526947 0.998784065246582031 -0.0362216383218765259
-2.26811790466308594 5.49970006942749023 1.31273460388183594 0.0162525493651628494 0.991498470306396484 -0.129098847508430481
-3.92139673233032227 5.49970006942749023 3.90224123001098633 -0.522894322872161865 0.829235315322875977 0.197358161211013794
-3.92104101181030273 5.49970006942749023 3.90213131904602051 -0.276736140251159668 0.951444268226623535 0.134799331426620483
-5.49970006942749023 1.12683773040771484 2.97129154205322266 -0.992075622081756592 -0.043911278247833252 -0.117718920111656189
-5.49970006942749023 1.02157890796661377 4.03935861587524414 -0.99416428804397583 -0.0717405229806900024 -0.0805640965700149536
-0.000300000014249235392 5.4927821159362793 5.42120027542114258 0.992170214653015137 0.124878950417041779 -0.00184702710248529911
-0.000300000014249235392 -0.793576240539550781 1.61966800689697266 0.990989148616790771 -0.0783220976591110229 -0.108655378222465515
-5.14934062957763672 5.49970006942749023 5.35580539703369141 -0.0838197693228721619 0.996465206146240234 -0.00558181898668408394
-0.126405477523803711 4.66480731964111328 0.000300000014249235392 0.986144006252288818 0.00333729526028037071 -0.165858060121536255
-0.127991199493408203 4.66463899612426758 0.000300000014249235392 0.501309990882873535 -0.411672979593276978 -0.761060833930969238
-5.49970006942749023 2.42474842071533203 4.75523757934570312 -0.999069094657897949 -0.0128388777375221252 -0.0411811843514442444
-0.000300000014249235392 2.38083696365356445 4.40318632125854492 0.998706161975860596 -0.0114725995808839798 -0.0495402328670024872
-0.136343002319335938 5.49970006942749023 5.29739904403686523 0.850535154342651367 0.463546693325042725 -0.248423740267753601
-0.136862516403198242 5.49970006942749023 5.29746246337890625 0.0971688181161880493 0.946879982948303223 -0.306555658578872681
-0.000300000014249235392 2.34613990783691406 3.56378650665283203 0.995198369026184082 -0.0185978654772043228 -0.0960945487022399902
-0.000300000014249235392 1.05461716651916504 2.54701566696166992 0.994160652160644531 -0.0565774701535701752 -0.0918884128332138062
-2.85152554512023926 2.56787681579589844 0.000300000014249235392 -0.176105886697769165 0.237126454710960388 -0.955383539199829102
-2.56455159187316895 2.1816558837890625 1.5564734935760498 0.894028782844543457 0.134917274117469788 -0.427211642265319824
-3.21952271461486816 5.49970006942749023 0.712053060531616211 0.258384525775909424 0.946715354919433594 0.192269071936607361
-4.46154594421386719 -0.987954616546630859 0.000300000014249235392 0.0936687439680099487 -0.189360231161117554 -0.977429687976837158
-4.46158933639526367 -0.987923383712768555 0.000300000014249235392 -0.0493085309863090515 -0.0891277268528938293 -0.994798898696899414
-0.000300000014249235392 -0.661944866180419922 5.45533657073974609 0.99383389949798584 -0.110877610743045807 -0.000481343769934028387
-3.53455114364624023 3.5627593994140625 3.3002922534942627 -0.0698839873075485229 0.0504716522991657257 -0.996277451515197754
-0.000300000014249235392 0.667423486709594727 5.44942378997802734 0.997942924499511719 -0.064100213348865509 -0.000971340050455182791
-5.49970006942749023 0.588972806930541992 3.75784492492675781 -0.995377302169799805 -0.0469983480870723724 -0.0837567746639251709
-0.999244093894958496 5.49970006942749023 3.0848393440246582 0.050647146999835968 0.99386143684387207 -0.0983571633696556091
-0.950931906700134277 5.49970006942749023 1.73808372020721436 -0.647704541683197021 0.751214146614074707 -0.127106800675392151
-0.950766205787658691 5.49970006942749023 1.73814129829406738 -0.295529037714004517 0.955092012882232666 0.0214902088046073914
-3.50948715209960938 0.874502062797546387 0.000300000014249235392 -0.326756656169891357 0.0481543689966201782 -0.943880915641784668
-3.50876092910766602 0.874507784843444824 0.000300000014249235392 0.343152076005935669 -0.180970966815948486 -0.92168116569519043
-3.50901031494140625 0.874893426895141602 0.000300000014249235392 0.120134361088275909 0.637280583381652832 -0.761210203170776367
-3.50906062126159668 0.874628901481628418 0.000300000014249235392 -0.0106046302244067192 -0.0449061580002307892 -0.99893486499786377
-1.92219102382659912 3.69978451728820801 0.000300000014249235392 -0.421576917171478271 0.144225969910621643 -0.895249485969543457
-1.92176342010498047 3.69985008239746094 0.000300000014249235392 0.0590457655489444733 0.25143858790397644 -0.966070413589477539
-2.66925787925720215 5.49970006942749023 3.81870150566101074 0.105048976838588715 0.991035044193267822 0.0825482234358787537
-2.66929841041564941 5.49970006942749023 3.81865262985229492 -0.0295016374439001083 0.996390402317047119 -0.0795973613858222961
-4.80103969573974609 5.49970006942749023 5.242156982421875 0.0285541582852602005 0.973890900611877441 0.225213333964347839
-2.33034944534301758 4.36032485961914062 0.000300000014249235392 0.102041430771350861 -0.125446975231170654 -0.986838698387145996
-3.27865982055664062 5.49970006942749023 2.28871035575866699 -0.315984517335891724 0.28883439302444458 -0.903730332851409912
