ply
format ascii 1.0
element vertex 379
property float x
property float y
property float z
property float nx
property float ny
property float nz
end_header
-0.00300000002607703209 1.68339908123016357 5.20001888275146484 0.0371169820427894592 -0.682078003883361816 -0.730336904525756836
-2.25319385528564453 1.25213944911956787 2.73402953147888184 0.593272924423217773 0.561093151569366455 -0.577236294746398926
-1.37396144866943359 2.10959267616271973 2.11348700523376465 -0.615266203880310059 -0.647086262702941895 0.450252056121826172
-0.00300000002607703209 1.16003274917602539 4.56368541717529297 0.65136873722076416 -0.198456466197967529 0.732348203659057617
-2.23660969734191895 1.90341842174530029 2.87798905372619629 0.533807337284088135 -0.340720713138580322 -0.773924469947814941
-2.9452979564666748 5.49700021743774414 5.46731948852539062 0.827746450901031494 0.500680804252624512 -0.253287434577941895
-3.82439780235290527 3.20625996589660645 3.3899388313293457 -0.214761912822723389 -0.112247072160243988 0.970194756984710693
-1.69011855125427246 1.43693268299102783 2.99632501602172852 -0.201898843050003052 0.299517810344696045 -0.932483792304992676
-2.04759955406188965 1.78641617298126221 3.01174592971801758 0.301458805799484253 -0.188511490821838379 -0.934658288955688477
-3.21342086791992188 4.26244163513183594 5.49700021743774414 0.413674116134643555 0.571948230266571045 0.708342313766479492
-2.04689121246337891 2.03951430320739746 2.90604352951049805 0.31014704704284668 -0.511707842350006104 -0.801226496696472168
-3.13809633255004883 2.8111875057220459 0.623849868774414062 0.150290846824645996 0.718371152877807617 0.679231584072113037
-3.28501343727111816 5.49700021743774414 1.06665241718292236 -0.877832233905792236 0.0530230551958084106 0.476024329662322998
-3.36831021308898926 5.48086690902709961 0.00300000002607703209 -0.653701543807983398 -0.364049375057220459 -0.66343224048614502
-1.72673368453979492 2.28528666496276855 2.07494258880615234 -0.128823116421699524 -0.95417553186416626 0.270099401473999023
-5.49700021743774414 5.49142074584960938 1.62494099140167236 -0.99412071704864502 -0.0174323916435241699 -0.10686473548412323
-2.22644543647766113 2.03239321708679199 2.80423879623413086 0.526668667793273926 -0.52190631628036499 -0.670994758605957031
-1.69756972789764404 2.08417320251464844 2.89152336120605469 -0.16713377833366394 -0.593210816383361816 -0.787507057189941406
-0.00300047686323523521 0.264448165893554688 4.0003662109375 0.763406097888946533 0.088002718985080719 0.639895856380462646
-2.17801046371459961 1.83789610862731934 1.77479982376098633 0.59015345573425293 -0.170256346464157104 0.789133548736572266
-0.748722553253173828 1.24433803558349609 0.00299952318891882896 0.212507158517837524 -0.0115106180310249329 -0.977091729640960693
-2.25979471206665039 1.45400583744049072 2.87151551246643066 0.612127542495727539 0.271903693675994873 -0.742541790008544922
-2.36322569847106934 1.78718900680541992 2.8005058765411377 0.711635470390319824 -0.163880676031112671 -0.683167695999145508
-2.4171903133392334 2.0152432918548584 2.52155661582946777 0.730173230171203613 -0.609258413314819336 -0.30927547812461853
-1.55770087242126465 1.59581732749938965 2.98773527145385742 -0.362389504909515381 0.0714813321828842163 -0.92928159236907959
-2.52306032180786133 5.49700021743774414 3.38982391357421875 -0.00761841842904686928 0.813619375228881836 0.581348001956939697
-0.284066915512084961 0.423209905624389648 5.49700021743774414 0.427659451961517334 -0.348243176937103271 0.834167003631591797
-0.00300000002607703209 3.9026191234588623 2.79358816146850586 0.764541029930114746 -0.367819339036941528 -0.529325902462005615
-2.02104306221008301 1.7383652925491333 3.02675986289978027 0.254001468420028687 -0.124173775315284729 -0.959199726581573486
-5.49700069427490234 3.91750383377075195 2.22052454948425293 -0.946573615074157715 -0.31812751293182373 0.0528511963784694672
-0.00300000002607703209 3.98837518692016602 3.96947026252746582 0.303303986787796021 -0.571763455867767334 0.762294769287109375
-1.8036494255065918 1.69631087779998779 3.05289816856384277 0.0010834764689207077 -0.0706125423312187195 -0.997503221035003662
-0.00300000002607703209 1.51609253883361816 5.01032447814941406 0.606650471687316895 -0.0584622696042060852 0.792816519737243652
-1.78260159492492676 0.805806457996368408 0.54316246509552002 0.827293157577514648 0.35190996527671814 -0.437887609004974365
-0.879638671875 5.49700021743774414 4.29634284973144531 -0.32481694221496582 0.813186407089233398 -0.482930421829223633
-5.49700021743774414 3.03576540946960449 3.80804800987243652 -0.858105063438415527 -0.504557371139526367 -0.0952765122056007385
-2.14134979248046875 -0.426273345947265625 5.49700021743774414 -0.0784651115536689758 -0.573906064033508301 0.81515347957611084
-1.864188551902771 1.88699018955230713 3.01680588722229004 0.0582718029618263245 -0.313555479049682617 -0.947780251502990723
-1.65846836566925049 1.89824259281158447 2.986083984375 -0.232692331075668335 -0.332538127899169922 -0.913932561874389648
-2.04703211784362793 1.80894637107849121 3.00713062286376953 0.281968861818313599 -0.220552057027816772 -0.933729290962219238
-1.93076539039611816 2.01894807815551758 2.9493708610534668 0.111862830817699432 -0.505674123764038086 -0.855441689491271973
-1.98073291778564453 2.12336397171020508 1.85614597797393799 -0.279892176389694214 -0.459124714136123657 0.843128025531768799
-2.00589752197265625 2.07456731796264648 1.82204854488372803 -0.368946760892868042 -0.635321557521820068 0.678413450717926025
-2.38957381248474121 1.31221127510070801 2.59473586082458496 0.788038194179534912 0.456820249557495117 -0.412687569856643677
-1.90709161758422852 2.0005791187286377 2.96305322647094727 0.0970277637243270874 -0.47412678599357605 -0.875093996524810791
-2.36586761474609375 2.09754061698913574 2.49462437629699707 0.734144508838653564 -0.617793262004852295 -0.281715065240859985
-2.09473085403442383 2.05165672302246094 2.87673592567443848 0.345028817653656006 -0.536018013954162598 -0.770480334758758545
-1.13380825519561768 1.19444417953491211 1.59793996810913086 -0.336169213056564331 -0.261971414089202881 -0.904633283615112305
-2.09520983695983887 2.30666184425354004 2.30615091323852539 0.353997886180877686 -0.935245275497436523 0.00132830440998077393
-5.49699974060058594 1.2476731538772583 3.50334668159484863 -0.782076835632324219 0.228552564978599548 0.579758167266845703
-1.18430995941162109 2.35542798042297363 0.243901491165161133 0.510948598384857178 -0.854837477207183838 -0.0904685109853744507
-2.50886750221252441 1.84684538841247559 2.40435218811035156 0.948991775512695312 -0.285155028104782104 -0.134541362524032593
-3.71611571311950684 -0.0437163673341274261 0.0120880156755447388 -0.997756242752075195 -0.0112749366089701653 0.065995238721370697
-1.73925244808197021 2.52103257179260254 0.845698118209838867 0.375649809837341309 -0.874905586242675781 -0.305658996105194092
-2.44559335708618164 1.45186531543731689 2.62496805191040039 0.853961348533630371 0.249628648161888123 -0.45654761791229248
-1.30788707733154297 4.01648712158203125 0.00300047686323523521 0.449453502893447876 -0.307678967714309692 -0.838644862174987793
-2.10649704933166504 1.49738132953643799 2.97902131080627441 0.372286200523376465 0.208058595657348633 -0.904496967792510986
-2.37389707565307617 5.49700021743774414 0.224063634872436523 -0.813016176223754883 0.365916222333908081 0.452890664339065552
-2.59240412712097168 2.0977630615234375 1.55716633796691895 0.584660053253173828 -0.1130719855427742 -0.803360104560852051
-4.91625690460205078 1.89134407043457031 5.49700021743774414 -0.344146430492401123 0.0419814325869083405 0.937976956367492676
-4.99372482299804688 3.91929912567138672 0.00300000002607703209 -0.274556875228881836 -0.901087045669555664 -0.335649549961090088
-2.93456101417541504 3.90165376663208008 2.93927836418151855 -0.831666171550750732 -0.454200148582458496 -0.319427043199539185
-1.95659983158111572 1.73790156841278076 3.04127025604248047 0.173326402902603149 -0.12376798689365387 -0.977056503295898438
-3.91431093215942383 3.71526455879211426 5.49700021743774414 -0.487553685903549194 0.477247893810272217 0.731113135814666748
-2.6613156795501709 1.86683940887451172 0.664053082466125488 0.614100277423858643 0.780141711235046387 0.119414158165454865
-5.49700021743774414 5.2795567512512207 5.38004970550537109 -0.52468407154083252 0.727115929126739502 0.442728996276855469
-1.63013982772827148 1.49341309070587158 2.99676418304443359 -0.29372069239616394 0.198550179600715637 -0.935043275356292725
-3.18524599075317383 4.60437679290771484 0.00300000002607703209 0.274539649486541748 0.1528300940990448 -0.949352920055389404
-1.7402045726776123 1.95360791683197021 2.98171472549438477 -0.123803064227104187 -0.402004718780517578 -0.907229304313659668
-0.00299976160749793053 1.98982501029968262 3.93351840972900391 0.653628170490264893 -0.691765666007995605 -0.30696985125541687
-1.6489642858505249 2.1998441219329834 2.7529442310333252 -0.25552070140838623 -0.750865280628204346 -0.609024286270141602
-1.99100041389465332 1.71629083156585693 3.03644013404846191 0.205714106559753418 -0.0852358564734458923 -0.974893152713775635
-1.51197397708892822 2.05966401100158691 2.82158303260803223 -0.441287219524383545 -0.581086218357086182 -0.683816075325012207
-4.834869384765625 5.49700021743774414 0.280328512191772461 -0.996925055980682373 0.0161345936357975006 0.0766820460557937622
-1.79534757137298584 1.38380038738250732 2.99167871475219727 -0.051760796457529068 0.364460527896881104 -0.929779171943664551
-0.00300000002607703209 2.02746200561523438 4.78854703903198242 0.702828645706176758 -0.711305379867553711 0.00874950643628835678
-2.88802170753479004 4.25522279739379883 5.49700021743774414 -0.251494258642196655 0.622703075408935547 0.740939915180206299
-5.49700021743774414 0.453074455261230469 4.31816577911376953 -0.520951926708221436 -0.852797925472259521 0.03667449951171875
-1.16064095497131348 1.05379104614257812 5.49700021743774414 0.22503507137298584 -0.205530941486358643 0.952426552772521973
-0.00300000002607703209 2.37721061706542969 5.11001491546630859 0.873670697212219238 -0.313453078269958496 0.372084349393844604
-2.35178494453430176 1.93181383609771729 2.74630427360534668 0.69805443286895752 -0.380437880754470825 -0.606619358062744141
-2.37399053573608398 1.80667543411254883 2.78100490570068359 0.740520834922790527 -0.204959213733673096 -0.64001619815826416
-3.58718419075012207 3.65175080299377441 3.40161800384521484 -0.663783371448516846 -0.0374379903078079224 0.746987283229827881
-2.7919154167175293 3.44181704521179199 1.47321414947509766 -0.550102293491363525 -0.443264096975326538 -0.707746028900146484
-2.12961578369140625 1.29929995536804199 2.87365293502807617 0.383461058139801025 0.476609349250793457 -0.791075944900512695
-3.67259120941162109 4.10006427764892578 3.30299210548400879 -0.715006232261657715 -0.640631675720214844 -0.279923498630523682
-2.35461139678955078 1.32162570953369141 2.04216742515563965 0.752932071685791016 0.435678184032440186 0.493232011795043945
-0.00300023844465613365 1.99097204208374023 3.43898105621337891 0.870186269283294678 -0.491612046957015991 0.0330676250159740448
-5.49700021743774414 0.0450842380523681641 0.147284030914306641 -0.919566631317138672 -0.000291440170258283615 0.392933964729309082
-3.91671872138977051 1.74814224243164062 5.49700021743774414 -0.220828011631965637 -0.825120210647583008 0.520011186599731445
-1.66544187068939209 1.48822450637817383 3.00623488426208496 -0.214310228824615479 0.218498170375823975 -0.952013552188873291
-0.497895479202270508 3.67473936080932617 5.49700021743774414 0.179316937923431396 -0.586014509201049805 0.790210366249084473
-5.49700021743774414 0.351176738739013672 1.98469364643096924 -0.70579838752746582 -0.303862929344177246 0.639934360980987549
-0.890977621078491211 1.34093761444091797 0.00300047686323523521 -0.158920601010322571 -0.324329167604446411 -0.932499289512634277
-1.50701773166656494 1.61399853229522705 2.96343493461608887 -0.440139234066009521 0.0553659498691558838 -0.896220982074737549
-2.92317867279052734 3.86496186256408691 0.0843944549560546875 -0.664499878883361816 -0.66101837158203125 0.348560750484466553
-0.00300000002607703209 1.6124110221862793 5.07105207443237305 0.601507008075714111 -0.720730364322662354 -0.344582498073577881
-0.00300000002607703209 2.87595081329345703 3.10591769218444824 0.3490123450756073 -0.934572517871856689 0.0690262168645858765
-0.00300000002607703209 -0.583215951919555664 5.03098487854003906 0.745510101318359375 0.0769032612442970276 -0.662042737007141113
-2.28634953498840332 1.95488631725311279 5.49700021743774414 0.592101156711578369 -0.343348711729049683 0.729059576988220215
-5.49700021743774414 3.00803256034851074 3.4581303596496582 -0.989044785499572754 -0.117427870631217957 0.0894490629434585571
-3.5289313793182373 3.97565197944641113 3.90272998809814453 -0.0819607153534889221 -0.711120367050170898 0.698276638984680176
-1.64206850528717041 2.49203085899353027 0.663303375244140625 0.44183957576751709 -0.776169776916503906 -0.449820250272750854
-1.78862738609313965 2.35327577590942383 2.32425951957702637 -0.0403471961617469788 -0.998427152633666992 -0.0389278531074523926
-1.81753182411193848 1.47478890419006348 3.02665090560913086 -0.0289090592414140701 0.242661029100418091 -0.969680309295654297
-1.74746620655059814 2.03021693229675293 2.94089770317077637 -0.110986784100532532 -0.508333683013916016 -0.853978276252746582
-0.00300000002607703209 5.41199874877929688 0.404402971267700195 0.815311193466186523 -0.210218802094459534 -0.539514303207397461
-1.99564433097839355 1.21625924110412598 2.86443376541137695 0.244070529937744141 0.606760323047637939 -0.756486296653747559
-1.42448902130126953 1.42938435077667236 1.65299630165100098 -0.737332582473754883 -0.408237099647521973 -0.538222253322601318
-5.49700021743774414 2.89410591125488281 4.70292854309082031 -0.818381428718566895 0.26530534029006958 0.509769678115844727
-2.46027159690856934 1.51161050796508789 2.63222265243530273 0.878409147262573242 0.166610762476921082 -0.447926700115203857
-2.04845738410949707 1.9203031063079834 2.97118067741394043 0.293088436126708984 -0.378218680620193481 -0.87809443473815918
-5.49700021743774414 2.41948461532592773 3.62970900535583496 -0.696956634521484375 -0.640644192695617676 -0.322221338748931885
-2.04257369041442871 1.8165661096572876 3.00678181648254395 0.303965151309967041 -0.226382970809936523 -0.925395011901855469
-2.35832333564758301 2.11606574058532715 2.45666837692260742 0.752762734889984131 -0.632754027843475342 -0.18157823383808136
-1.79508507251739502 2.22209668159484863 2.76719927787780762 -0.0289071574807167053 -0.795122027397155762 -0.60576021671295166
-0.00300000002607703209 3.70401525497436523 1.98752093315124512 0.864072442054748535 0.374814718961715698 0.33599516749382019
-2.42783927917480469 1.6775672435760498 2.72971105575561523 0.818125128746032715 -0.0545433126389980316 -0.572447657585144043
-2.8661036491394043 3.68097281455993652 2.51012945175170898 -0.426245510578155518 0.904600739479064941 0.00352251529693603516
-2.22929191589355469 4.95765876770019531 0.00299976160749793053 -0.200670778751373291 -0.155871853232383728 -0.967179000377655029
-0.00300047686323523521 2.73859858512878418 3.67237138748168945 0.590517818927764893 -0.731676638126373291 -0.340496689081192017
-1.14832091331481934 1.456748366355896 1.65299630165100098 -0.522545099258422852 -0.320440500974655151 -0.790104150772094727
-3.75466609001159668 -0.445666134357452393 0.751555204391479492 0.963198721408843994 -0.265145421028137207 0.0441154055297374725
-4.93949031829833984 5.49700021743774414 3.63671469688415527 -0.364371240139007568 0.931232571601867676 0.00625568628311157227
-5.49700021743774414 3.56603622436523438 3.33942890167236328 -0.813168942928314209 -0.131561994552612305 -0.566963613033294678
-1.51647651195526123 5.49700021743774414 0.123947620391845703 0.0827926471829414368 0.994231998920440674 0.0681773275136947632
-1.69717693328857422 2.26954007148742676 1.65299630165100098 0.224402755498886108 0.542641520500183105 -0.809434056282043457
-1.873199462890625 1.95684564113616943 2.98832035064697266 0.0846311375498771667 -0.390660107135772705 -0.916636407375335693
-2.30844473838806152 1.67249274253845215 1.84327137470245361 0.732566237449645996 0.0137643581256270409 0.680556595325469971
-5.49700021743774414 0.169748067855834961 4.34227705001831055 -0.464057683944702148 -0.885080158710479736 0.0358275175094604492
-2.16629624366760254 1.41280543804168701 2.91867542266845703 0.453872710466384888 0.305377066135406494 -0.83710479736328125
-3.52390074729919434 2.69150733947753906 0.765588760375976562 -0.32004198431968689 0.798667311668395996 0.509611248970031738
-3.11655020713806152 4.85651111602783203 0.00300000002607703209 0.100576311349868774 -0.140855610370635986 -0.984908163547515869
-2.36096072196960449 1.78631472587585449 2.80330872535705566 0.713319659233093262 -0.181311413645744324 -0.676979422569274902
-1.71296906471252441 1.17694246768951416 2.8325192928314209 -0.157607018947601318 0.665654182434082031 -0.729427635669708252
-5.49700021743774414 4.30171585083007812 4.47051382064819336 -0.797887504100799561 -0.535138845443725586 0.27749219536781311
-2.15613460540771484 2.05709004402160645 2.83713459968566895 0.42667052149772644 -0.553880453109741211 -0.714960634708404541
-4.28341054916381836 3.75647735595703125 3.54044556617736816 -0.0468280166387557983 0.0481154099106788635 0.997743487358093262
-2.33065462112426758 1.52330803871154785 2.83085131645202637 0.673974871635437012 0.150147050619125366 -0.723335146903991699
-2.05417370796203613 1.95461475849151611 2.95348930358886719 0.380117535591125488 -0.468195736408233643 -0.797686338424682617
-1.63146209716796875 1.7925417423248291 3.00766372680664062 -0.25745585560798645 -0.191213041543960571 -0.947182178497314453
-1.33582746982574463 1.59959328174591064 2.82537555694580078 -0.674257397651672363 0.0719885975122451782 -0.73497927188873291
-5.49700021743774414 5.40183877944946289 4.87486553192138672 -0.683289945125579834 -0.327628493309020996 -0.65251392126083374
-5.49700021743774414 4.6038360595703125 0.0843539237976074219 -0.858504176139831543 -0.483974754810333252 -0.169525995850563049
-2.82400131225585938 1.32167792320251465 0.490910381078720093 0.211578488349914551 -0.44445270299911499 -0.870457589626312256
-2.21985673904418945 1.62942600250244141 2.94080662727355957 0.524246811866760254 0.0121059734374284744 -0.851480364799499512
-2.2637016773223877 1.39963746070861816 1.87488353252410889 0.651794910430908203 0.234948694705963135 0.721084356307983398
-0.306107044219970703 5.49700021743774414 2.88515400886535645 0.126697733998298645 0.838999688625335693 0.529175996780395508
-4.06742525100708008 4.25674772262573242 1.65392446517944336 0.0645954087376594543 -0.310806721448898315 -0.948275625705718994
-5.49700021743774414 2.44739580154418945 1.9023900032043457 -0.489546686410903931 -0.240307644009590149 -0.838210225105285645
-5.49700021743774414 1.02898740768432617 4.31985950469970703 -0.880808711051940918 -0.164429977536201477 0.444003582000732422
-2.20515298843383789 1.83042669296264648 2.92732906341552734 0.508881330490112305 -0.216250628232955933 -0.833231866359710693
-2.22800922393798828 2.04791569709777832 2.78945398330688477 0.544657349586486816 -0.536009252071380615 -0.64501345157623291
-1.8086320161819458 2.32221364974975586 2.1455848217010498 -0.000716753304004669189 -0.98373866081237793 0.179604500532150269
-0.00300000002607703209 3.37982034683227539 4.36969280242919922 0.75919640064239502 0.14005744457244873 0.635613739490509033
-1.59760940074920654 1.02435564994812012 2.43691396713256836 -0.213471636176109314 0.976185917854309082 -0.0386128947138786316
-1.71658432483673096 1.98691320419311523 2.96037888526916504 -0.0328791514039039612 -0.503149509429931641 -0.863573729991912842
-1.59972679615020752 3.43054366111755371 5.49700021743774414 0.437887340784072876 0.0181916002184152603 0.898845851421356201
-1.49756419658660889 2.44890856742858887 0.0313833355903625488 -0.630408823490142822 -0.622356235980987549 0.463958412408828735
-2.31534004211425781 1.38452982902526855 2.78113579750061035 0.666908502578735352 0.363390445709228516 -0.65052330493927002
-4.04338169097900391 -0.496799498796463013 0.753290235996246338 0.740244150161743164 -0.672283947467803955 0.00853487569838762283
-1.38712716102600098 5.49700021743774414 1.13091778755187988 0.285858839750289917 0.81533503532409668 0.503501236438751221
-3.43257427215576172 2.55424380302429199 5.49700021743774414 -0.514498472213745117 -0.61931920051574707 0.593072652816772461
-2.02004909515380859 5.49700021743774414 4.20776844024658203 0.149621888995170593 0.382699429988861084 0.911676704883575439
-1.96396470069885254 1.7752234935760498 3.03471684455871582 0.145264789462089539 -0.170588254928588867 -0.974575638771057129
-1.35807883739471436 0.679122090339660645 0.568315625190734863 0.0935829430818557739 0.239274114370346069 -0.966431677341461182
-2.51197910308837891 1.73186409473419189 2.19323015213012695 0.947950005531311035 -0.074746258556842804 0.309521973133087158
-0.00299976160749793053 5.12447643280029297 4.45906257629394531 0.988257050514221191 -0.138235211372375488 -0.0651076734066009521
-0.00300000002607703209 5.45996236801147461 3.40670204162597656 0.73159337043762207 -0.037412639707326889 -0.680713891983032227
-2.23231601715087891 5.35390377044677734 5.49700021743774414 0.367667675018310547 -0.362308084964752197 0.856477260589599609
-2.05992269515991211 1.40428531169891357 2.96451139450073242 0.333482563495635986 0.342163205146789551 -0.878472387790679932
-2.1991426944732666 1.77975523471832275 2.94356226921081543 0.486975669860839844 -0.167871281504631042 -0.857131242752075195
-3.35414481163024902 4.47801399230957031 2.35045528411865234 0.635175824165344238 -0.760325133800506592 0.135857716202735901
-4.72281360626220703 1.10137200355529785 0.00300000002607703209 -0.513064205646514893 -0.800896525382995605 -0.30875551700592041
-1.83974814414978027 1.76081383228302002 3.04791927337646484 0.0146431829780340195 -0.163301140069961548 -0.986467599868774414
-2.11394953727722168 2.05271124839782715 2.86589455604553223 0.369110375642776489 -0.549123823642730713 -0.749813675880432129
-3.81888222694396973 2.60000133514404297 0.537596464157104492 -0.740579128265380859 -0.13457198441028595 0.658356249332427979
-0.00300000002607703209 -0.354161500930786133 4.17657470703125 0.582077264785766602 -0.624722182750701904 0.520488977432250977
-2.6719670295715332 3.05514860153198242 1.31769323348999023 -0.00138662417884916067 -0.72728729248046875 -0.686331748962402344
-2.39677762985229492 1.7593986988067627 2.76443195343017578 0.772668004035949707 -0.23569178581237793 -0.589434981346130371
-1.99058473110198975 1.74807000160217285 3.03338909149169922 0.196853607892990112 -0.139498412609100342 -0.970458030700683594
-0.00300000002607703209 3.88473129272460938 2.76065158843994141 0.468792498111724854 -0.493992805480957031 -0.732259988784790039
-1.75301182270050049 2.22852492332458496 2.75064396858215332 -0.108941495418548584 -0.773347437381744385 -0.624552309513092041
-3.30817055702209473 1.13135027885437012 5.49700021743774414 -0.419717013835906982 -0.172174572944641113 0.891175627708435059
-1.23205327987670898 1.032967209815979 1.65299618244171143 -0.323171555995941162 0.0256409384310245514 -0.94599306583404541
-1.36617326736450195 4.99007558822631836 0.00300023844465613365 0.270700126886367798 0.828224718570709229 -0.490678459405899048
-2.05326199531555176 1.87332820892333984 2.98736238479614258 0.288372069597244263 -0.295253545045852661 -0.910860538482666016
-1.79991698265075684 0.810973882675170898 0.575882434844970703 0.659292340278625488 0.0573983080685138702 -0.749692678451538086
-1.68068552017211914 2.10359859466552734 2.8703300952911377 -0.214347079396247864 -0.63457643985748291 -0.742541670799255371
-3.38008761405944824 4.37892293930053711 3.30299210548400879 -0.144125968217849731 -0.749529778957366943 -0.646090388298034668
-2.44357037544250488 1.75238466262817383 2.69264388084411621 0.830226302146911621 -0.111644342541694641 -0.54613184928894043
-5.49700021743774414 5.00557899475097656 3.07261419296264648 -0.75248253345489502 -0.463063925504684448 0.468339473009109497
-2.26978230476379395 1.49664926528930664 2.87905359268188477 0.599323451519012451 0.199121564626693726 -0.77534639835357666
-1.21661376953125 1.41118299961090088 1.65299642086029053 -0.489885985851287842 -0.412034511566162109 -0.768270373344421387
-2.85933208465576172 5.49700021743774414 0.572251796722412109 0.351204872131347656 0.916055858135223389 -0.193641304969787598
-3.02329397201538086 2.84680008888244629 0.245985984802246094 -0.337256640195846558 0.314017564058303833 -0.887497007846832275
-5.49700021743774414 5.33417081832885742 4.47844839096069336 -0.539247095584869385 -0.812647998332977295 -0.220942959189414978
-2.41313767433166504 1.48954236507415771 2.71082901954650879 0.808560490608215332 0.239380121231079102 -0.537519335746765137
-1.71119964122772217 1.1930471658706665 2.8484342098236084 -0.157706797122955322 0.663588881492614746 -0.731285452842712402
-1.65427303314208984 5.37321567535400391 5.49700021743774414 0.046450149267911911 0.773667097091674805 0.631887674331665039
-2.65102243423461914 1.90133213996887207 1.38172459602355957 0.586794078350067139 -0.0318271443247795105 -0.809110462665557861
-2.06345939636230469 1.54594516754150391 3.00675773620605469 0.323853522539138794 0.14963124692440033 -0.934199929237365723
-1.21053802967071533 1.68401026725769043 1.65299630165100098 -0.53633427619934082 -0.548128902912139893 -0.64179462194442749
-1.10697376728057861 1.28436696529388428 0.0918574929237365723 -0.927920937538146973 -0.321895718574523926 0.188005074858665466
-4.1152653694152832 -0.486788004636764526 0.753456473350524902 -0.945436537265777588 -0.324455201625823975 0.0296415612101554871
-5.49700021743774414 1.15816164016723633 2.69984602928161621 -0.988438844680786133 -0.136113926768302917 0.0667990148067474365
-2.28878307342529297 2.68502163887023926 1.47502827644348145 0.238013952970504761 -0.747563779354095459 -0.620078861713409424
-1.56195366382598877 1.86085212230682373 2.96199941635131836 -0.35222017765045166 -0.294419020414352417 -0.888402223587036133
-0.00300023844465613365 5.01793479919433594 0.882946491241455078 0.950271546840667725 -0.00893771648406982422 0.311294198036193848
-1.99979960918426514 1.91090965270996094 2.98921942710876465 0.215789720416069031 -0.357114523649215698 -0.908792614936828613
-1.89296448230743408 1.71742939949035645 3.05085492134094238 0.0976263359189033508 -0.0781686902046203613 -0.99214857816696167
-2.33060169219970703 1.34934377670288086 2.73592901229858398 0.702403545379638672 0.419610679149627686 -0.574940085411071777
-5.49700021743774414 2.04836082458496094 3.94224023818969727 -0.828422725200653076 -0.496129930019378662 0.25994408130645752
-3.89316892623901367 5.49700021743774414 5.35045862197875977 -0.126581788063049316 0.831733584403991699 0.540551841259002686
-0.00300000002607703209 4.26425027847290039 3.69532442092895508 0.0694938898086547852 -0.658999800682067871 0.748925864696502686
-2.07258319854736328 5.30938100814819336 0.00300000002607703209 -0.14923405647277832 -0.0857596546411514282 -0.985075891017913818
-0.602921247482299805 1.22396290302276611 0.00299904635176062584 0.00844526290893554688 0.176881462335586548 -0.984195947647094727
-1.75130200386047363 1.73679482936859131 3.04465365409851074 -0.131076931953430176 -0.110017396509647369 -0.985248684883117676
-1.86296558380126953 2.1832270622253418 2.81820297241210938 0.0570158474147319794 -0.733840346336364746 -0.676925063133239746
-4.28684568405151367 4.18868160247802734 2.10506701469421387 -0.365353614091873169 -0.810675621032714844 -0.457516938447952271
-0.781867504119873047 5.49700021743774414 5.27620220184326172 0.585746884346008301 0.215900704264640808 0.781208992004394531
-1.84454917907714844 1.28188395500183105 2.93726181983947754 0.0517463535070419312 0.492163956165313721 -0.868963241577148438
-1.01834940910339355 3.41314959526062012 0.00300000002607703209 0.837443351745605469 0.240979030728340149 -0.490528017282485962
-2.02180123329162598 2.24929475784301758 2.68435931205749512 0.4930306077003479 -0.861299455165863037 -0.122817724943161011
-3.14894533157348633 5.49700021743774414 2.55317854881286621 0.17562498152256012 0.899361848831176758 0.400380045175552368
-1.47952258586883545 0.6145782470703125 0.00300000002607703209 0.03162403404712677 0.0371000543236732483 -0.998811006546020508
-1.2048342227935791 4.80109071731567383 5.49700021743774414 0.867378830909729004 -0.231281086802482605 0.440639376640319824
-1.95180070400238037 2.91870880126953125 0.00300000002607703209 -0.0286052487790584564 -0.415305852890014648 -0.909231960773468018
-5.49700021743774414 4.40343427658081055 3.847076416015625 -0.958440721035003662 -0.0170537270605564117 0.284781694412231445
-2.32611179351806641 1.48900210857391357 2.82400250434875488 0.679956793785095215 0.236484885215759277 -0.694070398807525635
-2.73088741302490234 1.63370394706726074 0.21175539493560791 0.0904031768441200256 -0.425367653369903564 -0.900494158267974854
-2.65035629272460938 0.5666961669921875 5.49700021743774414 0.0951061248779296875 -0.644695699214935303 0.758499979972839355
-1.49408984184265137 5.49700021743774414 4.83660221099853516 -0.0784772560000419617 0.970190584659576416 -0.229284778237342834
-3.84673786163330078 5.14522027969360352 5.49700021743774414 -0.596297264099121094 -0.367981821298599243 0.713455677032470703
-2.70945882797241211 1.0823969841003418 1.19403481483459473 0.698884546756744385 0.250774234533309937 -0.669830322265625
-1.71998763084411621 2.51528334617614746 0.517787337303161621 0.278970658779144287 -0.636853933334350586 -0.718743681907653809
-2.12281632423400879 2.15822482109069824 2.75645709037780762 0.407564848661422729 -0.687940478324890137 -0.600523829460144043
-5.49700021743774414 4.71810054779052734 1.65214967727661133 -0.747130513191223145 -0.37994384765625 -0.545379340648651123
-2.69025731086730957 2.95011162757873535 2.64321756362915039 -0.0598205029964447021 0.465557962656021118 0.882993400096893311
-1.84625613689422607 2.31133532524108887 2.60494899749755859 0.0486471951007843018 -0.785784661769866943 -0.616584062576293945
-1.68241691589355469 1.7739570140838623 3.0259246826171875 -0.194889768958091736 -0.174557402729988098 -0.96516716480255127
-1.09306478500366211 5.49700021743774414 0.0176510810852050781 0.376961678266525269 0.797776639461517334 0.470587223768234253
-0.00300000002607703209 3.40579366683959961 3.75370311737060547 0.656065464019775391 0.605176389217376709 0.450931966304779053
-2.11472797393798828 1.70891296863555908 2.99665164947509766 0.404271364212036133 -0.0786868482828140259 -0.911248087882995605
-1.50358712673187256 1.61985170841217041 2.96193599700927734 -0.444664716720581055 0.0260395221412181854 -0.895318508148193359
-1.67981171607971191 3.69228935241699219 0.00300000002607703209 0.530968785285949707 -0.755961120128631592 -0.382877171039581299
-2.34329700469970703 1.66937243938446045 2.83890295028686523 0.686889529228210449 -0.0295294430106878281 -0.726161718368530273
-2.42121648788452148 1.53169918060302734 2.71624660491943359 0.800842046737670898 0.1663941890001297 -0.575295686721801758
-1.88187599182128906 1.83078992366790771 3.03302526473999023 0.168904274702072144 -0.339227139949798584 -0.925416827201843262
-2.05633544921875 1.18465721607208252 2.80994391441345215 0.320747584104537964 0.649192690849304199 -0.689688205718994141
-1.85078823566436768 1.39071762561798096 2.99657630920410156 0.0302027612924575806 0.364155590534210205 -0.930848360061645508
-2.33054614067077637 1.90160501003265381 2.79087471961975098 0.680874109268188477 -0.352467179298400879 -0.64201045036315918
-2.80127835273742676 3.4720001220703125 2.38803625106811523 -0.628242969512939453 -0.749984860420227051 0.20696239173412323
-4.18079566955566406 4.97817277908325195 5.49700021743774414 -0.155980527400970459 0.643370628356933594 0.749495983123779297
-3.14465093612670898 2.80915403366088867 0.0851987600326538086 -0.405640780925750732 0.911786556243896484 0.0640377253293991089
-0.994657039642333984 0.386974096298217773 5.49700021743774414 0.251099884510040283 -0.380208015441894531 0.890163302421569824
-4.92184352874755859 2.36844158172607422 0.00300000002607703209 -0.56805121898651123 -0.772190690040588379 -0.284674167633056641
-1.93649160861968994 1.91315770149230957 3.0009758472442627 0.175548404455184937 -0.373522341251373291 -0.910858869552612305
-3.94483804702758789 2.44273567199707031 5.49700021743774414 -0.0716364607214927673 -0.598035633563995361 0.798261463642120361
-2.05193758010864258 1.24579691886901855 2.86990928649902344 0.308281302452087402 0.564974069595336914 -0.765354156494140625
-5.49700021743774414 0.662672996520996094 4.92937135696411133 -0.898387253284454346 -0.373158901929855347 -0.231630787253379822
-1.51749587059020996 0.4875640869140625 0.00299952318891882896 0.30287402868270874 -0.185295850038528442 -0.934843778610229492
-1.79585325717926025 2.26968145370483398 2.69180512428283691 -0.0365266427397727966 -0.848905324935913086 -0.527281403541564941
-4.17562150955200195 2.48933744430541992 0.249089956283569336 -0.781360805034637451 0.529855251312255859 0.329740345478057861
-0.00300000002607703209 4.86269187927246094 3.96266865730285645 0.492529630661010742 0.775655388832092285 0.394681543111801147
-0.621365070343017578 5.49700021743774414 0.695509433746337891 0.374887645244598389 0.917526721954345703 0.132679730653762817
-2.15112495422363281 2.97631430625915527 5.49700021743774414 -0.230419188737869263 -0.904792428016662598 0.358130842447280884
-2.13404631614685059 2.09565854072570801 2.81737828254699707 0.427798748016357422 -0.594765424728393555 -0.680619120597839355
-1.18878269195556641 2.05825686454772949 1.65299630165100098 -0.0187704507261514664 -0.529361128807067871 -0.848188936710357666
-5.12271261215209961 3.61305975914001465 5.49700021743774414 -0.6699715256690979 0.39895281195640564 0.626079201698303223
-3.55529141426086426 3.09507012367248535 4.14183282852172852 -0.618741512298583984 0.511699795722961426 0.596089363098144531
-4.12869787216186523 3.61802840232849121 3.30299234390258789 0.289967834949493408 -0.0280939042568206787 -0.956624031066894531
-2.68424296379089355 3.39668178558349609 5.49700021743774414 0.662660598754882812 -0.111209303140640259 0.740616977214813232
-2.41581106185913086 1.88777971267700195 2.67772865295410156 0.799471139907836914 -0.325204163789749146 -0.505062520503997803
-1.83316159248352051 1.54368090629577637 3.04375052452087402 0.00146931014023721218 0.163406699895858765 -0.986557722091674805
-1.65016496181488037 1.65530729293823242 3.02615928649902344 -0.237944483757019043 -0.00277796201407909393 -0.971274852752685547
-2.48977327346801758 1.56879770755767822 2.58594417572021484 0.920284152030944824 0.13284619152545929 -0.368006646633148193
-5.49700021743774414 3.80008506774902344 3.92652034759521484 -0.378279298543930054 -0.903640329837799072 -0.200845584273338318
-4.25954627990722656 2.23639464378356934 5.49700021743774414 -0.609195232391357422 0.148469656705856323 0.778998255729675293
-5.49700021743774414 -0.851583957672119141 1.84295225143432617 -0.852518439292907715 -0.362330526113510132 0.376734405755996704
-1.67397379875183105 1.37181746959686279 2.96435880661010742 -0.217542916536331177 0.388224780559539795 -0.895520329475402832
-4.76805400848388672 5.34449291229248047 5.49700021743774414 -0.144366160035133362 -0.568706870079040527 0.809772133827209473
-1.75018727779388428 2.08918333053588867 2.8994288444519043 -0.117658168077468872 -0.590571582317352295 -0.79836195707321167
-3.64814472198486328 3.58781933784484863 3.30299234390258789 -0.098468393087387085 0.812082767486572266 -0.575174331665039062
-5.49700021743774414 0.531403064727783203 2.60678887367248535 -0.960874676704406738 -0.215476155281066895 0.174040496349334717
-2.00736260414123535 1.63607800006866455 3.03393244743347168 0.246685385704040527 0.0246429163962602615 -0.968782305717468262
-1.63333475589752197 1.5425267219543457 3.00919818878173828 -0.274072647094726562 0.142596438527107239 -0.951078593730926514
-2.37955307960510254 1.77373230457305908 2.78385019302368164 0.740928053855895996 -0.197510465979576111 -0.641884088516235352
-4.30457305908203125 -0.414433926343917847 0.845992684364318848 -0.12418307363986969 -0.985939085483551025 0.111815378069877625
-0.00300000002607703209 3.08588242530822754 2.35803580284118652 0.800004005432128906 -0.104001179337501526 0.590912342071533203
-5.49700021743774414 -0.642762422561645508 2.40657448768615723 -0.426690399646759033 -0.895031154155731201 0.129825398325920105
-1.87853062152862549 2.35102462768554688 2.4367067813873291 0.0765633732080459595 -0.978332281112670898 -0.19236445426940918
-4.59208774566650391 4.09399271011352539 3.10858964920043945 -0.285596519708633423 -0.914496839046478271 0.286583662033081055
-2.19544124603271484 2.06251978874206543 2.80398750305175781 0.496453225612640381 -0.548848867416381836 -0.672531843185424805
-1.76688408851623535 2.11773467063903809 2.87821841239929199 -0.066774323582649231 -0.623469829559326172 -0.778990745544433594
-1.85266482830047607 2.22225832939147949 2.76986813545227051 0.0496859923005104065 -0.797902464866638184 -0.600735306739807129
-1.2578279972076416 1.46432328224182129 1.65299630165100098 -0.656080722808837891 0.348790347576141357 -0.669255852699279785
-1.53202986717224121 2.24892687797546387 2.55936288833618164 -0.412272632122039795 -0.847010910511016846 -0.335565000772476196
-2.10365843772888184 2.27253293991088867 2.56273746490478516 0.378404080867767334 -0.845353603363037109 -0.377077817916870117
-1.06820046901702881 1.41429674625396729 0.83999180793762207 -0.647446393966674805 0.27602735161781311 0.710367560386657715
-1.99940586090087891 2.09520459175109863 2.87981700897216797 0.234146088361740112 -0.588275909423828125 -0.774020075798034668
-2.00761985778808594 1.54508757591247559 3.02341389656066895 0.129306912422180176 -0.129123508930206299 -0.983161687850952148
-2.24784755706787109 1.95650577545166016 2.84034037590026855 0.565416336059570312 -0.393338888883590698 -0.724975109100341797
-1.39786982536315918 1.91961979866027832 2.82395005226135254 -0.619192123413085938 -0.362693846225738525 -0.696458399295806885
-2.16795802116394043 2.04970765113830566 2.83525276184082031 0.454774975776672363 -0.52421337366104126 -0.719986081123352051
-3.32505989074707031 3.4746708869934082 3.30299234390258789 0.708426773548126221 0.189728856086730957 -0.679804563522338867
-2.43030118942260742 3.89258432388305664 0.00300000002607703209 -0.236234918236732483 -0.609093606472015381 -0.75709843635559082
-2.22694778442382812 1.20642483234405518 2.70736384391784668 0.575031101703643799 0.616452455520629883 -0.537890017032623291
-1.930320143699646 1.91302859783172607 3.00186014175415039 0.126261204481124878 -0.321995258331298828 -0.938284158706665039
-1.51600122451782227 5.49700021743774414 0.231258392333984375 -0.167055502533912659 0.979766428470611572 0.110228069126605988
-1.26955676078796387 5.49700021743774414 0.13580632209777832 -0.788328349590301514 0.553494572639465332 0.268667340278625488
-1.86613810062408447 2.29253959655761719 2.64905428886413574 0.00930236279964447021 -0.911404430866241455 -0.411406606435775757
-1.53229808807373047 2.4592738151550293 0.0102655291557312012 -0.519150435924530029 -0.804511964321136475 0.288519084453582764
-0.814064264297485352 -0.961775779724121094 5.49700021743774414 0.247971057891845703 -0.635904788970947266 0.730845808982849121
-5.49700021743774414 3.03547143936157227 5.23639774322509766 -0.371013343334197998 -0.914872646331787109 -0.159239113330841064
-1.45506632328033447 1.24425077438354492 2.7472691535949707 0.158904612064361572 -0.0208819601684808731 -0.987073123455047607
-1.87941122055053711 1.20067894458770752 2.87212538719177246 0.0852095410227775574 0.645667374134063721 -0.758849799633026123
-2.19616866111755371 1.1715552806854248 2.69164729118347168 0.490462541580200195 0.676630735397338867 -0.549196958541870117
-2.02979516983032227 5.49700021743774414 5.33430051803588867 0.407449603080749512 0.695302188396453857 0.59206390380859375
-1.18967664241790771 2.20662569999694824 1.65299630165100098 -0.166735008358955383 -0.571281611919403076 -0.803639709949493408
-2.05923914909362793 1.53494524955749512 3.0060572624206543 0.381440401077270508 0.0549282021820545197 -0.922760128974914551
-1.26739346981048584 4.67857980728149414 5.49699974060058594 0.21433943510055542 0.129310533404350281 0.968161880970001221
-2.11680746078491211 1.97494792938232422 2.91620302200317383 0.387392759323120117 -0.457152605056762695 -0.800586223602294922
-2.1635890007019043 2.09507203102111816 2.79786849021911621 0.459114909172058105 -0.604470372200012207 -0.651021599769592285
-5.49700021743774414 4.1153254508972168 0.171731233596801758 -0.943108916282653809 -0.332218557596206665 -0.0132810017094016075
-3.47024393081665039 2.21847343444824219 5.49700021743774414 -0.0393358245491981506 -0.855793237686157227 0.515820324420928955
-2.02556705474853516 2.2300574779510498 2.7149357795715332 0.287543714046478271 -0.793391823768615723 -0.536514759063720703
-1.51507675647735596 1.79772639274597168 2.95555496215820312 -0.403713464736938477 -0.185815662145614624 -0.895816922187805176
-1.72364258766174316 1.68508434295654297 3.04365372657775879 -0.141211420297622681 -0.0633505284786224365 -0.987950444221496582
-2.74212098121643066 1.59606027603149414 0.413214057683944702 0.767521679401397705 -0.543060302734375 0.340581893920898438
-0.645025253295898438 1.98012638092041016 0.00299952318891882896 0.377742111682891846 -0.574873685836791992 -0.725831389427185059
-3.6217036247253418 5.02752780914306641 5.49700021743774414 -0.600636959075927734 0.702376246452331543 0.381972551345825195
-0.00300023844465613365 2.84078574180603027 0.890279769897460938 0.787342071533203125 -0.576464354991912842 0.21858939528465271
-1.96973240375518799 2.30744290351867676 2.58167123794555664 0.248301312327384949 -0.888690412044525146 -0.385455310344696045
-2.2732536792755127 1.4791259765625 2.87009429931640625 0.626368522644042969 0.245214462280273438 -0.739954233169555664
-1.83870530128479004 1.98411333560943604 2.97534465789794922 0.00883328355848789215 -0.444524765014648438 -0.895723044872283936
-1.95602560043334961 2.34618353843688965 2.39418601989746094 0.209698855876922607 -0.965858936309814453 -0.152127906680107117
-3.43733024597167969 4.03070735931396484 3.30299210548400879 0.0888433903455734253 -0.827382385730743408 -0.554567635059356689
-1.20600831508636475 2.79207897186279297 0.00300000002607703209 -0.233798518776893616 0.898456096649169922 -0.371638298034667969
-3.56962823867797852 4.41116905212402344 0.321274042129516602 0.173373088240623474 -0.8467559814453125 -0.502937436103820801
-3.73536252975463867 1.20007050037384033 5.49700021743774414 0.0371606461703777313 -0.65042424201965332 0.758661568164825439
-1.24407243728637695 1.98104524612426758 2.49450278282165527 -0.652866482734680176 -0.652340173721313477 -0.384990602731704712
-1.79177200794219971 1.50818121433258057 3.034149169921875 -0.0619605258107185364 0.187524646520614624 -0.980303764343261719
-1.73851704597473145 1.48656797409057617 3.02198696136474609 -0.110177002847194672 0.241177186369895935 -0.964206814765930176
-0.00300000002607703209 3.71707010269165039 0.985044479370117188 0.872197151184082031 -0.137185290455818176 0.469523489475250244
-5.49700021743774414 4.19779205322265625 2.40674781799316406 -0.761675417423248291 -0.404496163129806519 0.506195068359375
-1.41721808910369873 1.86649453639984131 2.86665058135986328 -0.579463958740234375 -0.313927054405212402 -0.752111315727233887
-2.88973665237426758 1.64545178413391113 5.49700021743774414 -0.228701546788215637 -0.897553503513336182 0.37695273756980896
-2.16907215118408203 1.28862905502319336 2.84085488319396973 0.468937098979949951 0.511372685432434082 -0.720136165618896484
-0.474279403686523438 1.89971482753753662 5.49700021743774414 0.425386041402816772 0.0624030828475952148 0.902858257293701172
-1.98120546340942383 2.0383608341217041 2.92710447311401367 0.20576399564743042 -0.50534355640411377 -0.838026940822601318
-1.72056019306182861 2.2498633861541748 2.70764064788818359 -0.151486814022064209 -0.830134153366088867 -0.536590218544006348
-5.49700021743774414 2.52947044372558594 5.43430566787719727 -0.986913800239562988 0.129416912794113159 -0.0961893200874328613
-2.13513922691345215 2.18709969520568848 2.70724248886108398 0.423064291477203369 -0.733895421028137207 -0.531426429748535156
-2.14169168472290039 1.97066342830657959 2.90538167953491211 0.409852027893066406 -0.429768145084381104 -0.80456244945526123
-1.91546332836151123 2.19457101821899414 2.79973888397216797 0.090211823582649231 -0.723431229591369629 -0.684477150440216064
-3.40098285675048828 3.39116477966308594 3.57721281051635742 0.00194735755212605 -0.16594359278678894 0.986133337020874023
-0.00300000002607703209 2.75578570365905762 1.42904508113861084 0.597023487091064453 -0.779016315937042236 -0.191563263535499573
-3.80655789375305176 3.18965506553649902 3.40298247337341309 -0.75763249397277832 -0.505428314208984375 0.412959069013595581
-1.45991063117980957 1.89666152000427246 2.88763928413391113 -0.513656556606292725 -0.337382912635803223 -0.788878798484802246
-0.00300000002607703209 3.04718828201293945 5.46305513381958008 0.933842360973358154 -0.352463871240615845 -0.060890980064868927
-2.54758548736572266 5.09370136260986328 5.49700021743774414 0.679436266422271729 -0.688351273536682129 0.254045099020004272
-2.34437203407287598 1.97239875793457031 2.7247774600982666 0.686806917190551758 -0.434792757034301758 -0.582453131675720215
-2.02747988700866699 1.46907198429107666 2.99920225143432617 0.277930796146392822 0.257978677749633789 -0.925311565399169922
-5.49700021743774414 0.314288854598999023 1.72715497016906738 -0.904349088668823242 0.133953645825386047 0.405227303504943848
-1.93211793899536133 1.20786917209625244 2.87230634689331055 0.117074668407440186 0.632697999477386475 -0.765497803688049316
-1.6662750244140625 2.17308902740478516 1.92169606685638428 -0.278849512338638306 -0.733501970767974854 0.619853079319000244
-2.12587237358093262 1.89732563495635986 2.94874358177185059 0.395362645387649536 -0.360669791698455811 -0.844751894474029541
-1.86849474906921387 2.03583168983459473 2.94475507736206055 0.0803048759698867798 -0.516332745552062988 -0.852614641189575195
-1.91649150848388672 2.2190852165222168 1.94884610176086426 0.110864013433456421 -0.885886311531066895 0.450460523366928101
-2.0734870433807373 1.46642684936523438 2.98305916786193848 0.348073720932006836 0.264065176248550415 -0.899507820606231689
-1.20233798027038574 5.49700021743774414 3.95444917678833008 0.805019378662109375 0.552422285079956055 0.216271594166755676
-2.08651614189147949 2.24949336051940918 2.07843971252441406 -0.436956167221069336 -0.845391213893890381 -0.307218164205551147
-1.92638015747070312 1.7352142333984375 3.04616141319274902 0.126462697982788086 -0.123750433325767517 -0.984222054481506348
-1.70118629932403564 1.74767756462097168 3.03429985046386719 -0.165281742811203003 -0.112705305218696594 -0.979785442352294922
-0.00300000002607703209 0.907410621643066406 3.68326425552368164 0.35655704140663147 -0.858690917491912842 0.368126243352890015
-2.16776108741760254 1.24410355091094971 2.80313563346862793 0.461946725845336914 0.560381293296813965 -0.687443137168884277
-2.09775972366333008 2.62801742553710938 1.04425334930419922 0.325015783309936523 -0.814169764518737793 -0.481136471033096313
-0.00300023844465613365 4.69085931777954102 2.32946681976318359 0.834017932415008545 -0.159326717257499695 0.528232038021087646
