ply
format ascii 1.0
element vertex 377
property float x
property float y
property float z
property float nx
property float ny
property float nz
end_header
-4.04840707778930664 4.26264810562133789 3.00028705596923828 -0.0740059912204742432 -0.891590595245361328 0.446754217147827148
-5.18645763397216797 5.34130573272705078 5.49700021743774414 0.585638165473937988 -0.47394871711730957 0.657571732997894287
-3.91086673736572266 5.10118675231933594 0.00300047686323523521 -0.316956281661987305 -0.0688165351748466492 -0.945940256118774414
-0.705515384674072266 2.3938755989074707 0.00300023844465613365 -0.0643732398748397827 -0.750094592571258545 -0.658190071582794189
-0.307832717895507812 4.82795476913452148 0.00299976160749793053 -0.0673097521066665649 0.737963080406188965 -0.671475887298583984
-2.03208374977111816 -0.815397262573242188 0.00300000002607703209 -0.381275266408920288 -0.00155639078002423048 -0.924460232257843018
-1.0715484619140625 1.08203184604644775 5.49700021743774414 -0.744991540908813477 -0.379456073045730591 0.548635244369506836
-3.10838866233825684 2.02516984939575195 5.49700021743774414 0.0937974005937576294 -0.926768898963928223 0.363732606172561646
-3.02083921432495117 3.67277717590332031 3.30299234390258789 0.426588714122772217 0.407256484031677246 -0.80756688117980957
-1.89590001106262207 2.21923613548278809 2.77092528343200684 0.249641686677932739 -0.632283270359039307 -0.733414590358734131
-1.20427191257476807 -0.251463651657104492 5.49700021743774414 0.394956499338150024 -0.789481103420257568 0.469818055629730225
-2.02825689315795898 2.25338125228881836 2.67254972457885742 0.386016488075256348 -0.616387307643890381 -0.686336696147918701
-2.03331375122070312 1.98815655708312988 2.9428706169128418 0.202529042959213257 -0.280301749706268311 -0.938303232192993164
-0.964673519134521484 3.08801484107971191 5.49700021743774414 -0.59289783239364624 -0.295399963855743408 0.749140143394470215
-2.86923599243164062 5.49700021743774414 2.42608404159545898 -0.2092580646276474 0.946511924266815186 0.245614007115364075
-5.49700021743774414 0.666042327880859375 4.80126285552978516 -0.555372357368469238 0.25668787956237793 0.790994882583618164
-2.99454998970031738 4.09503650665283203 1.2526857852935791 -0.729226946830749512 0.194533303380012512 -0.656037271022796631
-1.48233222961425781 2.08375883102416992 1.94117724895477295 -0.833670318126678467 -0.0582847148180007935 0.549178183078765869
-5.49700021743774414 4.21385288238525391 4.21981954574584961 -0.818609714508056641 0.571029305458068848 -0.0616742372512817383
-4.5150446891784668 4.12021541595458984 5.49700021743774414 -0.504582464694976807 0.422875195741653442 0.752710521221160889
-1.22455251216888428 0.890358924865722656 1.33095800876617432 -0.60341191291809082 -0.552228868007659912 -0.575271487236022949
-0.00300000002607703209 5.05420732498168945 0.432099103927612305 0.685157060623168945 -0.233725756406784058 -0.689878284931182861
-5.49699974060058594 1.78589606285095215 4.55567216873168945 -0.504445374011993408 -0.847792565822601318 -0.163653850555419922
-3.4053499698638916 0.164828553795814514 0.846244156360626221 0.893452227115631104 -0.385840952396392822 0.229934573173522949
-2.71013975143432617 3.17820239067077637 0.508669257164001465 -0.413315117359161377 -0.907463312149047852 0.0753720179200172424
-0.90659630298614502 2.51679849624633789 0.00300023844465613365 -0.249271228909492493 0.388066142797470093 -0.887281537055969238
-3.18925213813781738 4.8995356559753418 0.00300000002607703209 0.131793811917304993 -0.124849870800971985 -0.983383417129516602
-0.122606277465820312 -0.254652976989746094 5.49700021743774414 -0.0791104584932327271 -0.249120891094207764 0.965235888957977295
-0.00300000002607703209 3.92097043991088867 2.48362207412719727 0.895960092544555664 0.15186503529548645 -0.417363494634628296
-0.129568099975585938 5.49700021743774414 3.16876316070556641 -0.0682158023118972778 0.975601494312286377 -0.208682239055633545
-2.40087008476257324 2.23867964744567871 1.65299642086029053 0.240242466330528259 -0.74452662467956543 -0.622867345809936523
-4.05937814712524414 -0.49496951699256897 0.758449912071228027 0.634532272815704346 -0.746180534362792969 0.201453253626823425
-2.22264456748962402 5.19748687744140625 5.49700021743774414 -0.186125010251998901 -0.434040039777755737 0.881457149982452393
-2.0112769603729248 1.83186531066894531 3.01207375526428223 0.219784170389175415 -0.131348371505737305 -0.966665744781494141
-5.49700069427490234 3.81310534477233887 5.16019725799560547 -0.91553795337677002 0.179670035839080811 0.359873443841934204
-5.49699926376342773 2.1666102409362793 2.05778694152832031 -0.827912747859954834 0.336149752140045166 -0.44895857572555542
-2.96262097358703613 -0.826112270355224609 0.00300047686323523521 -0.651971101760864258 -0.393759489059448242 -0.647986948490142822
-1.09603524208068848 1.21029222011566162 0.00300023844465613365 -0.392850726842880249 0.438318043947219849 -0.808421671390533447
-2.30756831169128418 3.95725250244140625 5.49700021743774414 -0.413876980543136597 -0.735725343227386475 0.536110162734985352
-2.80167508125305176 5.49700021743774414 3.26177620887756348 -0.622563064098358154 0.748386383056640625 -0.228764161467552185
-1.09673559665679932 5.49700021743774414 2.0379948616027832 -0.236896976828575134 0.66063237190246582 -0.712351500988006592
-0.630445957183837891 -0.526890277862548828 5.49700021743774414 -0.274391889572143555 -0.0370848886668682098 0.960902571678161621
-4.62043046951293945 5.49700021743774414 3.65203857421875 -0.366397351026535034 0.85115504264831543 -0.375883102416992188
-3.9152226448059082 5.49700021743774414 1.78816962242126465 -0.620249450206756592 0.525648534297943115 -0.58222353458404541
-0.00300000002607703209 4.30344390869140625 4.17421722412109375 0.821064233779907227 -0.554461181163787842 -0.135743841528892517
-1.59737861156463623 2.05334806442260742 5.49700021743774414 -0.901031851768493652 -0.192154943943023682 0.388867735862731934
-0.00299976160749793053 4.42581462860107422 2.78385114669799805 0.614723324775695801 -0.373268336057662964 -0.694828033447265625
-2.02886652946472168 2.1230623722076416 2.84486556053161621 0.188488379120826721 -0.420301675796508789 -0.88759148120880127
-0.465960979461669922 5.49700021743774414 3.92831563949584961 -0.190563932061195374 0.977847576141357422 -0.0865994617342948914
-1.38201618194580078 1.93867182731628418 2.79659867286682129 -0.631747961044311523 -0.385898888111114502 -0.672292053699493408
-4.1983342170715332 1.09326267242431641 5.49700021743774414 -0.159656181931495667 -0.872836291790008545 0.461157858371734619
-2.06398868560791016 1.9295961856842041 2.96148490905761719 0.357389688491821289 -0.28178676962852478 -0.890431880950927734
-5.49700021743774414 5.03437709808349609 4.43866109848022461 -0.292539447546005249 -0.940592050552368164 -0.172357931733131409
-3.12621355056762695 0.26622462272644043 0.00299952318891882896 0.0940471291542053223 -0.575817584991455078 -0.812150955200195312
-1.33124446868896484 1.31206393241882324 2.66045141220092773 -0.417320996522903442 -0.525390386581420898 -0.741490483283996582
-5.49700021743774414 1.83349502086639404 4.91301107406616211 -0.717835009098052979 -0.651695132255554199 0.244962096214294434
-0.0412125587463378906 -0.420222759246826172 0.00300047686323523521 -0.0110586592927575111 0.0770540237426757812 -0.996965587139129639
-1.73656034469604492 -0.112133264541625977 5.49700021743774414 -0.225036486983299255 -0.425281375646591187 0.876638114452362061
-5.49700021743774414 4.77341985702514648 5.39569664001464844 -0.956667602062225342 -0.193466603755950928 0.217618480324745178
-2.85480904579162598 4.09899187088012695 0.00300047686323523521 0.169478923082351685 -0.271416783332824707 -0.94742274284362793
-1.54567050933837891 2.42217826843261719 5.49700021743774414 -0.55709230899810791 -0.324694782495498657 0.764343798160552979
-5.39961910247802734 4.1285858154296875 5.49700021743774414 -0.799340486526489258 0.583105802536010742 0.145059973001480103
-4.58809375762939453 5.49699926376342773 4.12588739395141602 -0.645837664604187012 0.763342857360839844 0.0141937108710408211
-1.17375540733337402 5.34271144866943359 5.49700021743774414 -0.490862756967544556 0.85395503044128418 0.172668769955635071
-1.98505818843841553 5.49699974060058594 4.64900302886962891 -0.291134476661682129 0.876322150230407715 0.383797109127044678
-0.00300023844465613365 5.48378276824951172 5.39850139617919922 0.998528003692626953 -0.00659804046154022217 0.0538357757031917572
-0.216922283172607422 1.86345088481903076 5.49700021743774414 -0.771330595016479492 0.159677371382713318 0.616078078746795654
-0.00300000002607703209 5.10406208038330078 2.88196039199829102 0.846001148223876953 -0.32725951075553894 -0.420931458473205566
-0.492738723754882812 -0.66637420654296875 5.49700021743774414 -0.411522865295410156 -0.260889112949371338 0.873261570930480957
-5.49700021743774414 3.14959335327148438 0.521270751953125 -0.686337888240814209 0.502163887023925781 0.526091039180755615
-1.39597833156585693 4.07105159759521484 0.00300047686323523521 -0.295278966426849365 0.339153677225112915 -0.893188178539276123
-3.94545078277587891 3.02276945114135742 5.49700021743774414 -0.375117033720016479 -0.865129351615905762 0.332924097776412964
-4.15938520431518555 4.22822093963623047 1.06847286224365234 -0.426762133836746216 -0.262079745531082153 -0.865556657314300537
-0.458910942077636719 4.17167568206787109 5.49700021743774414 0.449699550867080688 -0.326146930456161499 0.831503748893737793
-0.135295867919921875 2.52182245254516602 5.49700021743774414 -0.119106881320476532 0.158027321100234985 0.980224907398223877
-0.00300000002607703209 0.585684061050415039 0.180229425430297852 0.880502700805664062 0.465561628341674805 0.0892598852515220642
-5.49700069427490234 0.418320894241333008 1.77211308479309082 -0.892649829387664795 0.0741800814867019653 -0.444605052471160889
-3.74907255172729492 3.77776622772216797 5.49700021743774414 -0.906960189342498779 -0.0634491369128227234 0.416410148143768311
-3.5998232364654541 4.40180301666259766 3.1322779655456543 -0.187849849462509155 -0.695428133010864258 -0.69360804557800293
-5.49700021743774414 -0.814586162567138672 0.639603137969970703 -0.616423606872558594 -0.606849074363708496 -0.501753091812133789
-0.00300000002607703209 4.93005990982055664 0.277927875518798828 0.613869190216064453 0.753674507141113281 0.234817817807197571
-0.298074960708618164 1.48258602619171143 0.00299976160749793053 -0.073505990207195282 0.113783881068229675 -0.990782558917999268
-0.653697490692138672 5.49700021743774414 3.70550298690795898 0.742717921733856201 0.658751428127288818 0.120069295167922974
-5.49700021743774414 4.73660135269165039 4.79462146759033203 -0.998655021190643311 -0.0517773032188415527 0.00268930662423372269
-0.00300000002607703209 3.91368579864501953 3.44507575035095215 0.813136100769042969 -0.568732082843780518 -0.123909130692481995
-2.47412300109863281 5.49700021743774414 0.315843582153320312 -0.414154350757598877 0.476151436567306519 -0.77572929859161377
-2.58122491836547852 4.51867008209228516 5.49700021743774414 0.588439702987670898 0.543077170848846436 0.599004387855529785
-2.55534768104553223 5.02629184722900391 5.49700021743774414 -0.242494687438011169 -0.96421438455581665 0.107176996767520905
-2.09808254241943359 4.99627971649169922 5.49700021743774414 0.475755453109741211 -0.320290356874465942 0.819189131259918213
-0.783072948455810547 5.49700021743774414 5.04500579833984375 -0.668555915355682373 0.737160265445709229 0.0981210321187973022
-2.669189453125 1.07037985324859619 1.29154026508331299 0.558827102184295654 0.209906384348869324 0.802278995513916016
-5.49700021743774414 2.19995570182800293 1.98751139640808105 -0.960631847381591797 0.128905624151229858 -0.246109306812286377
-2.68064546585083008 2.95309329032897949 3.03440761566162109 -0.465239673852920532 0.854804396629333496 0.22991645336151123
-0.876798033714294434 5.49700021743774414 1.45082569122314453 -0.281606882810592651 0.632976531982421875 0.721136808395385742
-4.19235420227050781 3.38483428955078125 3.30299234390258789 -0.727406084537506104 0.652247250080108643 -0.213199377059936523
-3.38316917419433594 3.57430100440979004 4.18924474716186523 -0.956927061080932617 0.124907620251178741 -0.262085199356079102
-1.45773768424987793 5.31317520141601562 5.49700021743774414 0.50246042013168335 -0.137415498495101929 0.85361027717590332
-4.91770505905151367 0.408286094665527344 5.49700021743774414 -0.557159841060638428 -0.782663345336914062 0.27750849723815918
-1.6977231502532959 1.02810120582580566 2.13274359703063965 0.737885534763336182 0.486459016799926758 0.467848896980285645
-5.49700021743774414 3.10423064231872559 5.09002017974853516 -0.995231270790100098 -0.0864093080163002014 0.045256294310092926
-2.83156228065490723 4.06870460510253906 5.49700021743774414 0.456703007221221924 0.406683176755905151 0.791221380233764648
-0.0521993637084960938 0.666861295700073242 0.00300000002607703209 -0.123486712574958801 0.550417840480804443 -0.825706541538238525
-1.99610447883605957 4.90459728240966797 0.00300000002607703209 -0.712808728218078613 -0.294237226247787476 -0.636653900146484375
-1.13654446601867676 3.5458979606628418 0.00300000002607703209 -0.230733498930931091 0.411749690771102905 -0.881603240966796875
-1.7494661808013916 1.28504586219787598 2.93137884140014648 0.0915186330676078796 0.24991840124130249 -0.963932156562805176
-0.130017757415771484 4.24983835220336914 0.00300000002607703209 0.403830349445343018 -0.289187639951705933 -0.867923736572265625
-0.00300000002607703209 5.27606630325317383 3.38828754425048828 0.852417647838592529 -0.492823570966720581 -0.174668550491333008
-1.14413225650787354 2.92244768142700195 0.00300000002607703209 -0.451927155256271362 0.573800742626190186 -0.683018684387207031
-0.440867900848388672 5.49700021743774414 4.64179134368896484 -0.31712263822555542 0.930929243564605713 0.181118696928024292
-5.49700021743774414 0.489936113357543945 3.69593596458435059 -0.903635025024414062 -0.3678874671459198 -0.219323024153709412
-5.49700021743774414 2.21261787414550781 4.11330223083496094 -0.899981975555419922 -0.432332098484039307 -0.055869612842798233
-4.62551498413085938 0.620938539505004883 5.49700021743774414 -0.293138474225997925 -0.844636797904968262 0.447948932647705078
-0.00300000002607703209 4.56761360168457031 4.28507232666015625 0.898457646369934082 -0.395082324743270874 -0.191530078649520874
-3.45972561836242676 2.68988537788391113 0.00300047686323523521 -0.742383420467376709 0.0679631158709526062 -0.666519224643707275
-5.49700021743774414 -0.672814369201660156 1.02927875518798828 -0.710348129272460938 -0.448266357183456421 -0.542644262313842773
-4.15169811248779297 5.49700021743774414 4.56419515609741211 -0.142445951700210571 0.987320244312286377 0.070055842399597168
-5.49700021743774414 5.21411800384521484 3.61800861358642578 -0.761787116527557373 -0.342487573623657227 0.549893379211425781
-3.90107417106628418 -0.125620663166046143 0.74832528829574585 0.945729970932006836 0.0921774730086326599 -0.31160581111907959
-3.50224947929382324 3.42334675788879395 3.4506220817565918 -0.620835721492767334 0.745720148086547852 0.24179413914680481
-0.00299976160749793053 5.13417625427246094 4.65258312225341797 0.935686886310577393 -0.130188792943954468 0.327934354543685913
-0.566955089569091797 1.54235649108886719 5.49700021743774414 -0.31374824047088623 0.632337749004364014 0.708315610885620117
-1.69256162643432617 2.07465863227844238 2.89765071868896484 -0.0429551303386688232 -0.451128780841827393 -0.89142453670501709
-1.57097876071929932 2.99245429039001465 5.49700021743774414 -0.895619094371795654 -0.0162267442792654037 0.444525718688964844
-3.07214140892028809 3.64268612861633301 5.49700021743774414 0.471928179264068604 0.237211883068084717 0.849125683307647705
-2.1323552131652832 5.21596431732177734 5.49700021743774414 0.481337040662765503 -0.119103647768497467 0.868405997753143311
-0.0239925384521484375 2.13677835464477539 5.49700021743774414 -0.031103106215596199 0.669191718101501465 0.742438614368438721
-2.0279536247253418 2.12230968475341797 2.84595561027526855 0.310190737247467041 -0.468444973230361938 -0.827249050140380859
-5.49700021743774414 1.75611889362335205 2.00293111801147461 -0.597701013088226318 -0.424795448780059814 -0.679928243160247803
-4.96384000778198242 0.384340524673461914 0.00299952318891882896 -0.361441463232040405 -0.609653949737548828 -0.705465912818908691
-2.0673527717590332 2.28818130493164062 2.55900144577026367 -0.241131022572517395 -0.900692224502563477 -0.361399203538894653
-1.4129793643951416 4.02727174758911133 0.00300023844465613365 0.57223278284072876 -0.308194965124130249 -0.759977281093597412
-5.49700021743774414 1.17405962944030762 0.576226234436035156 -0.920332193374633789 0.313133955001831055 0.234383821487426758
-3.90558171272277832 -0.478260904550552368 0.74832528829574585 0.668219149112701416 0.347452372312545776 -0.657845020294189453
-3.39218592643737793 3.76086115837097168 4.08799076080322266 -0.825592756271362305 -0.4932422935962677 -0.274059653282165527
-1.9898371696472168 5.49700069427490234 4.44511604309082031 -0.402503132820129395 0.912271201610565186 -0.0758451521396636963
-0.161617517471313477 5.49700021743774414 0.961151242256164551 -0.244476452469825745 0.968285441398620605 -0.0515225455164909363
-3.24192714691162109 5.41979312896728516 5.49700021743774414 -0.773784041404724121 -0.0328861400485038757 0.632595241069793701
-0.143378973007202148 4.67432498931884766 0.00300000002607703209 -0.0531750768423080444 0.409788399934768677 -0.910629391670227051
-4.21486616134643555 -0.0883738994598388672 5.49700021743774414 -0.12439534068107605 -0.939164698123931885 0.320148766040802002
-3.86827516555786133 4.08255529403686523 4.00776195526123047 -0.013245326466858387 -0.774902641773223877 -0.631941795349121094
-2.44579577445983887 1.69646704196929932 2.69845199584960938 0.647333443164825439 -0.230595394968986511 -0.726488292217254639
-1.63455486297607422 1.26739692687988281 2.88657784461975098 -0.17033657431602478 0.245089054107666016 -0.954419732093811035
-3.82560539245605469 2.98179292678833008 5.49700021743774414 -0.118844509124755859 -0.266815453767776489 0.95639193058013916
-0.0217902660369873047 5.49700021743774414 5.23666572570800781 -0.0951884686946868896 0.957293152809143066 0.272999852895736694
-0.00300000002607703209 5.49223995208740234 3.14046907424926758 0.9532279372215271 -0.0028088744729757309 -0.30223923921585083
-3.6040794849395752 0.499471396207809448 0.22483903169631958 -0.551034092903137207 -0.755892395973205566 0.353536546230316162
-3.86999988555908203 2.58414459228515625 1.67516672611236572 -0.976684629917144775 0.214234605431556702 0.013807087205350399
-5.49700021743774414 5.34734821319580078 4.84137821197509766 -0.978049993515014648 -0.0961004719138145447 0.184886112809181213
-1.6479262113571167 5.49700021743774414 1.57896637916564941 -0.394936144351959229 0.621013462543487549 -0.6770285964012146
-5.49700021743774414 2.59216785430908203 0.464606046676635742 -0.905746400356292725 0.358632922172546387 0.225844860076904297
-1.95860254764556885 0.858328640460968018 0.751221418380737305 -0.2170906662940979 0.713801860809326172 0.665851712226867676
-2.58728122711181641 0.048557281494140625 5.49700021743774414 0.280725479125976562 -0.89836198091506958 0.337844967842102051
-4.45283699035644531 0.620080828666687012 0.574895143508911133 0.675386965274810791 -0.628453075885772705 0.385874569416046143
-1.05405151844024658 0.0458507537841796875 0.00300000002607703209 -0.558052420616149902 -0.631620883941650391 -0.538175225257873535
-3.17300653457641602 5.37283992767333984 5.49700117111206055 -0.294828832149505615 0.304527997970581055 0.905725479125976562
-0.218299627304077148 5.47674560546875 5.49700021743774414 0.216951221227645874 -0.366419941186904907 0.904803097248077393
-4.26362800598144531 1.69381237030029297 5.49700021743774414 -0.224716976284980774 -0.438371390104293823 0.870248675346374512
-1.5055004358291626 5.49700021743774414 0.0240702629089355469 0.496145248413085938 0.865353226661682129 0.0707367658615112305
-3.54462957382202148 3.23606634140014648 5.49700021743774414 0.425235956907272339 -0.791413187980651855 0.43913501501083374
-1.54950058460235596 0.371246337890625 0.00300000002607703209 -0.675665795803070068 -0.404713988304138184 -0.616183638572692871
-3.38350224494934082 5.49699974060058594 4.62763166427612305 -0.51103585958480835 0.756682693958282471 0.407766610383987427
-0.00300000002607703209 3.99270439147949219 5.26883792877197266 0.869634389877319336 -0.49162447452545166 -0.0451817736029624939
-0.00300000002607703209 4.92790603637695312 1.79006433486938477 0.249215587973594666 -0.297080069780349731 -0.921756505966186523
-0.21884465217590332 0.0733988285064697266 5.49700021743774414 -0.494271904230117798 -0.323206335306167603 0.80699002742767334
-3.27325582504272461 2.251678466796875 5.49700069427490234 -0.591665029525756836 -0.387034326791763306 0.70720362663269043
-2.14052629470825195 1.90392160415649414 2.93880867958068848 0.455709546804428101 -0.303468257188796997 -0.836800992488861084
-3.80948472023010254 3.03162884712219238 3.55889701843261719 0.443581551313400269 0.756851911544799805 0.480011075735092163
-0.00300000002607703209 2.89834332466125488 0.122241973876953125 0.853358149528503418 -0.36275780200958252 0.374415099620819092
-5.49700069427490234 0.371345043182373047 0.830074787139892578 -0.744399189949035645 -0.659212410449981689 -0.106343202292919159
-1.81220471858978271 5.14293003082275391 5.49700021743774414 0.529115855693817139 -0.306009948253631592 0.791450738906860352
-1.67975246906280518 5.46876764297485352 5.49700021743774414 -0.318708270788192749 0.921756386756896973 0.220885127782821655
-2.95798277854919434 2.86706018447875977 0.269672393798828125 -0.63698422908782959 -0.138335585594177246 0.758362948894500732
-2.97767972946166992 4.04065322875976562 1.06773519515991211 -0.620914638042449951 -0.783428609371185303 -0.0265438277274370193
-3.67479276657104492 -0.300387561321258545 0.161162480711936951 -0.532719433307647705 0.785313844680786133 0.315423786640167236
-5.49700021743774414 1.86252081394195557 3.40627050399780273 -0.696689844131469727 -0.597344100475311279 -0.397244572639465332
-1.92199647426605225 1.61583113670349121 5.49700021743774414 -0.42888912558555603 -0.408003240823745728 0.805969893932342529
-3.26012921333312988 3.76661252975463867 5.49700021743774414 0.33935624361038208 0.203934073448181152 0.918285489082336426
-0.0577263832092285156 3.21141242980957031 5.49700021743774414 -0.0711720511317253113 0.93339085578918457 0.351732999086380005
-2.72934150695800781 2.93798708915710449 2.03543996810913086 -0.828176915645599365 0.44654381275177002 -0.338705837726593018
-3.41587972640991211 3.50927925109863281 3.5342254638671875 -0.0501394607126712799 0.902002990245819092 0.428808420896530151
-1.77294206619262695 5.29725980758666992 0.00299976160749793053 0.15319138765335083 -0.0596075244247913361 -0.986397147178649902
-4.47472667694091797 4.13039970397949219 2.65197610855102539 -0.777937591075897217 -0.497217655181884766 0.384171396493911743
-0.00300000002607703209 3.0651242733001709 3.42176151275634766 0.860993683338165283 -0.461097985506057739 -0.214659184217453003
-2.88119912147521973 5.49700021743774414 0.911952972412109375 0.0732961669564247131 0.440009832382202148 -0.894996702671051025
-3.12900972366333008 4.21025705337524414 3.30299258232116699 0.24358600378036499 0.626015126705169678 -0.740790665149688721
-5.03028392791748047 3.31666731834411621 5.49700021743774414 -0.722602784633636475 0.00183820724487304688 0.691260993480682373
-0.00299976160749793053 1.72272539138793945 3.93759965896606445 0.899791598320007324 -0.429142087697982788 -0.0788190364837646484
-3.60875964164733887 4.47817707061767578 5.49700021743774414 -0.674910485744476318 0.573948323726654053 0.463766276836395264
-5.49700021743774414 5.22614955902099609 4.57489871978759766 -0.911458134651184082 -0.176665708422660828 -0.371528357267379761
-3.01231193542480469 4.15229511260986328 2.86564540863037109 -0.440832167863845825 -0.445339977741241455 -0.77931976318359375
-0.413161516189575195 1.63814330101013184 5.49700021743774414 -0.638567745685577393 0.417815327644348145 0.646267473697662354
-3.03973507881164551 4.09171676635742188 5.49700021743774414 -0.435367226600646973 -0.789258778095245361 0.433042705059051514
-5.49700021743774414 5.49103355407714844 3.93002080917358398 -0.706266999244689941 -0.00756120262667536736 0.707905173301696777
-0.375107765197753906 0.0880641937255859375 5.49700021743774414 -0.144990801811218262 -0.603534579277038574 0.78404313325881958
-0.00300000002607703209 4.58663845062255859 4.08881998062133789 0.877955853939056396 -0.449493199586868286 -0.164770811796188354
-0.705199956893920898 3.49609994888305664 0.00300000002607703209 -0.419536024332046509 -0.126430809497833252 -0.898890852928161621
-2.38323736190795898 4.21727466583251953 5.49700021743774414 0.394257098436355591 0.0290601737797260284 0.918540596961975098
-5.49700021743774414 1.92250180244445801 0.734319925308227539 -0.936221182346343994 -0.35088956356048584 0.019142763689160347
-0.00299976160749793053 3.81405901908874512 1.65276026725769043 0.345712363719940186 -0.410452395677566528 0.84380793571472168
-5.49699974060058594 4.45477676391601562 4.41649532318115234 -0.623438775539398193 -0.443520486354827881 0.643904983997344971
-1.97783422470092773 2.23940467834472656 2.72099637985229492 0.213396281003952026 -0.632789433002471924 -0.744338333606719971
-1.86961150169372559 1.91599178314208984 3.00590395927429199 0.27101600170135498 -0.258112698793411255 -0.92732316255569458
-2.65126538276672363 2.98841381072998047 2.07701516151428223 -0.726192176342010498 -0.38762173056602478 -0.56779778003692627
-0.0146334171295166016 0.771585941314697266 0.00300000002607703209 -0.0106613999232649803 -0.58961331844329834 -0.807615280151367188
-3.68815779685974121 2.9588172435760498 3.86877298355102539 -0.7242584228515625 0.0168839804828166962 0.68932187557220459
-2.60305976867675781 5.49700021743774414 3.62267160415649414 0.247503221035003662 0.951371550559997559 0.183396786451339722
-0.953502416610717773 0.592844009399414062 0.00300000002607703209 -0.367274612188339233 -0.286423295736312866 -0.884913027286529541
-2.99340128898620605 4.09133291244506836 0.167769432067871094 -0.238157913088798523 -0.961300909519195557 0.138497024774551392
-4.25394058227539062 5.09385204315185547 5.49700021743774414 -0.547383427619934082 -0.146591052412986755 0.823943257331848145
-0.00401067733764648438 0.216889142990112305 5.49700021743774414 -0.00219481252133846283 0.233467161655426025 0.972362220287322998
-0.00300000002607703209 0.931928157806396484 3.52937602996826172 0.774716615676879883 -0.629554569721221924 0.0589512810111045837
-1.95086121559143066 2.17814826965332031 2.81167173385620117 0.313222527503967285 -0.503564417362213135 -0.805179834365844727
-2.27877068519592285 1.97412478923797607 2.80052781105041504 0.466378539800643921 -0.402602851390838623 -0.787655949592590332
-5.49699974060058594 4.97752952575683594 0.854157447814941406 -0.902359247207641602 -0.0857183411717414856 -0.422374427318572998
-5.49700021743774414 3.07158350944519043 4.39530849456787109 -0.791833639144897461 0.244472712278366089 0.55967181921005249
-0.00300000002607703209 2.57391238212585449 2.15319728851318359 0.954893350601196289 0.0946005955338478088 0.281477212905883789
-3.92890644073486328 2.79546308517456055 3.30299258232116699 -0.176025167107582092 -0.228020519018173218 -0.957612514495849609
-2.2418065071105957 2.88009905815124512 0.00299976160749793053 0.0509776100516319275 -0.696557283401489258 -0.715687990188598633
-2.21587324142456055 1.99682879447937012 2.84005355834960938 0.470745503902435303 -0.454646885395050049 -0.75610506534576416
-0.490037441253662109 3.34571409225463867 5.49700021743774414 0.838768362998962402 -0.428415536880493164 0.336047232151031494
-0.059635162353515625 1.75627756118774414 0.00300000002607703209 -0.0113357715308666229 -0.0225715674459934235 -0.999680936336517334
-0.00300000002607703209 3.8335111141204834 1.71120607852935791 0.83541947603225708 -0.465292066335678101 -0.292536467313766479
-0.0402300357818603516 3.72534036636352539 5.49700021743774414 -0.175543099641799927 0.258125871419906616 0.950029313564300537
-0.527965068817138672 0.145135641098022461 0.00300000002607703209 -0.437496811151504517 0.605574548244476318 -0.664737522602081299
-4.31848526000976562 0.615301370620727539 5.49700021743774414 -0.288773030042648315 -0.7419167160987854 0.605119585990905762
-2.07043838500976562 5.49700021743774414 2.97140645980834961 -0.434525400400161743 0.888317465782165527 -0.148592486977577209
-5.49700021743774414 4.79688739776611328 3.46036386489868164 -0.954921364784240723 0.294651657342910767 -0.0361329019069671631
-0.961930036544799805 4.39059543609619141 0.00300023844465613365 -0.31640547513961792 0.662397503852844238 -0.679056048393249512
-0.00300000002607703209 4.86182117462158203 5.40311717987060547 0.121554866433143616 -0.20408909022808075 0.971376359462738037
-1.0504380464553833 -0.77490544319152832 5.49700021743774414 -0.941091060638427734 -0.0922951176762580872 0.325314074754714966
-2.8275904655456543 2.51324653625488281 5.49700069427490234 -0.39189445972442627 -0.568078517913818359 0.723675012588500977
-0.253520488739013672 3.22228193283081055 5.49700021743774414 0.930520713329315186 -0.022113502025604248 0.365570187568664551
-0.00299952318891882896 4.10402297973632812 1.99889326095581055 0.883024692535400391 -0.388697892427444458 -0.263023555278778076
-5.49700021743774414 1.07309198379516602 0.221232891082763672 -0.462296903133392334 0.772664427757263184 0.435053199529647827
-5.49700021743774414 3.0873560905456543 4.99201059341430664 -0.921735882759094238 -0.111388087272644043 0.371477782726287842
-0.0031566619873046875 4.29466962814331055 5.49700021743774414 -0.00190189026761800051 0.751790523529052734 0.659399271011352539
-0.00300000002607703209 4.31962394714355469 0.417192459106445312 0.80878978967666626 -0.557278096675872803 0.187883511185646057
-5.49700021743774414 -0.757464408874511719 2.51233649253845215 -0.919865548610687256 -0.341251194477081299 -0.193377852439880371
-2.19661712646484375 2.2391047477722168 2.51291155815124512 0.433425426483154297 -0.678607642650604248 -0.592987537384033203
-2.15169477462768555 2.28310489654541016 2.38911747932434082 0.434292197227478027 -0.809617698192596436 -0.394853800535202026
-5.49700021743774414 4.67158222198486328 4.44763660430908203 -0.466681092977523804 -0.883278429508209229 0.0450325608253479004
-0.00300000002607703209 2.44783735275268555 1.63279902935028076 0.616550028324127197 -0.694035768508911133 -0.371726304292678833
-0.37345433235168457 3.58559513092041016 0.00299976160749793053 -0.0911389589309692383 0.201591312885284424 -0.975220322608947754
-1.75291812419891357 1.49880623817443848 5.49700021743774414 -0.674985170364379883 0.115501813590526581 0.728734731674194336
-1.89251649379730225 2.04166650772094727 2.93955755233764648 0.186442986130714417 -0.323229491710662842 -0.92777252197265625
-1.44261360168457031 1.41045033931732178 2.86313867568969727 -0.512305617332458496 -0.0839168950915336609 -0.854693472385406494
-4.16923618316650391 4.22516584396362305 2.56824588775634766 -0.0635481476783752441 -0.896019160747528076 -0.439444243907928467
-2.38490533828735352 5.37688636779785156 0.00299976160749793053 -0.638553023338317871 0.464098751544952393 -0.613891184329986572
-3.31305217742919922 0.0370178632438182831 0.754298627376556396 -0.339048266410827637 -0.591802358627319336 -0.731311321258544922
-5.49700021743774414 0.704085826873779297 3.70971918106079102 -0.0803591161966323853 -0.994762420654296875 -0.0631672963500022888
-0.808515548706054688 5.49700021743774414 4.56937503814697266 -0.432700365781784058 0.55263131856918335 0.712298393249511719
-3.01845502853393555 4.17209863662719727 2.64734387397766113 -0.731033384799957275 0.143329083919525146 -0.667118370532989502
-5.49700021743774414 5.48807430267333984 2.85619783401489258 -0.899660885334014893 -0.00645533157512545586 -0.436541646718978882
-0.182108163833618164 0.807674407958984375 0.00300000002607703209 -0.236890077590942383 0.538232028484344482 -0.808819770812988281
-0.400528669357299805 3.03104948997497559 5.49700021743774414 -0.553081095218658447 -0.608848690986633301 0.568686723709106445
-1.12269496917724609 4.75945281982421875 5.49700021743774414 -0.480812668800354004 -0.811514675617218018 0.332058966159820557
-1.08390581607818604 5.49699926376342773 3.242584228515625 -0.24997103214263916 0.940034627914428711 -0.232054814696311951
-4.86229276657104492 5.49700021743774414 4.21173381805419922 -0.53115236759185791 0.843393445014953613 -0.0810227394104003906
-3.87379050254821777 0.769073307514190674 0.405802339315414429 0.532971680164337158 -0.748932003974914551 0.393753767013549805
-0.05680084228515625 2.34545183181762695 5.49700021743774414 -0.0660851374268531799 0.913399636745452881 0.401663810014724731
-0.00300000002607703209 5.14807510375976562 3.28116226196289062 0.63096153736114502 -0.357195377349853516 -0.688693702220916748
-3.12584018707275391 3.58623981475830078 3.30299234390258789 0.34635394811630249 0.25083160400390625 -0.903948307037353516
-5.49700021743774414 1.19745492935180664 2.48655605316162109 -0.935681521892547607 -0.251759231090545654 0.247219353914260864
-5.49699926376342773 -0.922545433044433594 2.0075230598449707 -0.845389723777770996 -0.233874425292015076 -0.480228066444396973
-0.00300000002607703209 4.18236827850341797 2.28724336624145508 0.825095415115356445 -0.244724765419960022 -0.509241878986358643
-1.62777125835418701 5.22109222412109375 0.00299976160749793053 0.369236767292022705 -0.0648055821657180786 -0.927073061466217041
-3.28914952278137207 4.49817657470703125 2.48321628570556641 -0.717581093311309814 -0.494374305009841919 -0.490582704544067383
-1.50495707988739014 4.30086898803710938 5.49700021743774414 0.577623665332794189 -0.763559997081756592 0.288664251565933228
-3.01751899719238281 4.49443531036376953 5.49700021743774414 0.313549280166625977 0.580328702926635742 0.751601994037628174
-1.71969974040985107 4.31252670288085938 5.49700021743774414 0.500681102275848389 -0.506984472274780273 0.701630353927612305
-2.73753499984741211 3.26651453971862793 1.94519662857055664 -0.906243324279785156 -0.392922848463058472 -0.15599571168422699
-1.68646979331970215 2.50528120994567871 0.0116984844207763672 0.582940280437469482 -0.812496423721313477 0.00549514871090650558
-1.61036098003387451 -0.127471446990966797 5.49700021743774414 -0.498276591300964355 -0.822647571563720703 0.273809105157852173
-2.21661162376403809 2.66348481178283691 0.714469671249389648 -0.750404119491577148 -0.602558553218841553 -0.271692574024200439
-0.189793109893798828 5.49700021743774414 4.63188648223876953 -0.059322211891412735 0.99735647439956665 -0.0419631749391555786
-0.142349720001220703 4.72218036651611328 0.00299952318891882896 -0.0357969589531421661 0.856970250606536865 -0.514121115207672119
-4.05530548095703125 2.52666091918945312 1.10968685150146484 -0.890907049179077148 0.0645146071910858154 -0.449580341577529907
-0.166353464126586914 0.331407785415649414 5.49700021743774414 -0.1642560213804245 0.858629763126373291 0.485566526651382446
-0.00300023844465613365 5.34404993057250977 5.19443273544311523 0.751418769359588623 -0.0343593321740627289 0.658930361270904541
-4.34229469299316406 0.518043041229248047 5.49700021743774414 -0.169983416795730591 -0.879329085350036621 0.44484400749206543
-2.97926044464111328 5.49700021743774414 0.372816085815429688 -0.219245210289955139 0.930460095405578613 0.293556779623031616
-3.13824248313903809 2.8111424446105957 1.79775142669677734 -0.710852742195129395 -0.0224409960210323334 -0.702982723712921143
-0.00300023844465613365 1.94922316074371338 4.40557193756103516 0.930712223052978516 -0.355432271957397461 0.0862706303596496582
-0.267130136489868164 1.29097640514373779 5.49700021743774414 -0.168192759156227112 -0.843734085559844971 0.509729325771331787
-1.62892842292785645 1.64823567867279053 3.01921772956848145 -0.061776384711265564 -0.0549838244915008545 -0.99657440185546875
-0.00300000002607703209 3.09307026863098145 0.524228811264038086 0.858458638191223145 0.249487042427062988 0.448112666606903076
-3.75774192810058594 3.12848567962646484 5.49700021743774414 -0.11487579345703125 -0.201413661241531372 0.972746491432189941
-0.108953237533569336 1.55413651466369629 5.49700021743774414 -0.0617108196020126343 -0.525129437446594238 0.848782002925872803
-3.73461723327636719 4.10091400146484375 5.49700021743774414 -0.0603402853012084961 0.50613933801651001 0.860338091850280762
-1.6041862964630127 3.62251710891723633 5.49700021743774414 -0.583548128604888916 -0.700769662857055664 0.410357743501663208
-0.00300000002607703209 4.94459152221679688 3.42586851119995117 0.978487491607666016 -0.193839818239212036 -0.0706285908818244934
-4.33738803863525391 5.49700021743774414 3.2877650260925293 -0.222446858882904053 0.817347943782806396 -0.531469404697418213
-1.71082413196563721 2.25191259384155273 2.70029544830322266 -0.0477983877062797546 -0.685426831245422363 -0.726571083068847656
-1.00754129886627197 4.62499666213989258 5.49700021743774414 -0.213721528649330139 0.549490272998809814 0.80770266056060791
-5.49700021743774414 3.2720341682434082 2.53636312484741211 -0.689134001731872559 0.134005963802337646 -0.712135255336761475
-1.64923608303070068 5.33663463592529297 5.49700021743774414 -0.457161456346511841 -0.152136772871017456 0.876274943351745605
-2.49795198440551758 5.49700021743774414 0.170190095901489258 -0.356758981943130493 0.930280745029449463 0.0854443013668060303
-2.56629252433776855 5.49700021743774414 4.08115339279174805 0.484875202178955078 0.86774057149887085 -0.109189748764038086
-0.0539834499359130859 2.76221752166748047 5.49700021743774414 -0.110435664653778076 0.770248472690582275 0.628109276294708252
-5.49700021743774414 3.61538982391357422 5.08049726486206055 -0.901286125183105469 0.163962364196777344 0.400998234748840332
-2.30445480346679688 5.42600154876708984 0.00300000002607703209 -0.40726470947265625 -0.171337127685546875 -0.897094786167144775
-5.49700021743774414 5.46088790893554688 4.56291723251342773 -0.990265250205993652 -0.106861963868141174 0.089192122220993042
-4.95608425140380859 5.46529483795166016 5.49700021743774414 -0.664344131946563721 -0.0499356500804424286 0.745756864547729492
-4.60050201416015625 4.43128681182861328 5.49700021743774414 -0.539549589157104492 0.078203931450843811 0.838314056396484375
-0.591021299362182617 4.71174430847167969 5.49699974060058594 0.35150611400604248 -0.166420206427574158 0.921275079250335693
-1.75483477115631104 1.97976195812225342 1.74531662464141846 -0.831012427806854248 -0.537621140480041504 -0.142765030264854431
-0.651790142059326172 4.10873222351074219 0.00300000002607703209 0.141521871089935303 -0.563778162002563477 -0.813711106777191162
-0.00300000002607703209 2.37441301345825195 4.71706438064575195 0.680131614208221436 0.202184915542602539 0.704657793045043945
-4.31114101409912109 0.720195770263671875 5.49700021743774414 -0.329353034496307373 -0.761538147926330566 0.558199107646942139
-3.83528375625610352 1.80875813961029053 0.00300000002607703209 -0.240787923336029053 0.787045061588287354 -0.567962348461151123
-4.87146377563476562 4.70444679260253906 0.00299952318891882896 -0.318654537200927734 -0.16501915454864502 -0.933395922183990479
-5.49700021743774414 1.31286191940307617 3.82681488990783691 -0.816112399101257324 -0.192391723394393921 0.544927537441253662
-1.81907522678375244 2.13862419128417969 2.86436128616333008 -0.549687862396240234 -0.510019600391387939 -0.66160660982131958
-0.888582944869995117 2.8308415412902832 0.00299952318891882896 0.571641445159912109 -0.448339074850082397 -0.687181293964385986
-1.50830674171447754 5.49700021743774414 2.42287015914916992 0.603044390678405762 0.594469308853149414 -0.53192448616027832
-2.52428674697875977 2.32602524757385254 1.14487206935882568 0.71481025218963623 0.685110688209533691 0.140248522162437439
-0.817196846008300781 5.39284324645996094 5.49700021743774414 -0.209560513496398926 0.317407995462417603 0.924844086170196533
-2.51939558982849121 1.74050748348236084 2.48311138153076172 0.8287467360496521 -0.237206518650054932 -0.506864786148071289
-5.11180543899536133 3.02654862403869629 5.49700021743774414 -0.899174034595489502 0.310431957244873047 0.308412164449691772
-0.325766801834106445 4.75296354293823242 0.00300000002607703209 -0.366038799285888672 -0.392721265554428101 -0.843673884868621826
-2.90601921081542969 5.49018526077270508 5.49700021743774414 0.669385790824890137 -0.0255682896822690964 0.742474853992462158
-1.36048769950866699 1.07827103137969971 1.65299618244171143 -0.472361981868743896 -0.186165407299995422 -0.861519932746887207
-0.00487303733825683594 -0.405009746551513672 0.00300000002607703209 -0.117407500743865967 0.933423399925231934 -0.339022397994995117
-1.49618983268737793 3.08788871765136719 5.49700021743774414 -0.71853405237197876 0.608921051025390625 0.336041569709777832
-2.17948198318481445 2.10022711753845215 2.78001284599304199 0.37488943338394165 -0.521747708320617676 -0.766314148902893066
-0.00300023844465613365 1.84262728691101074 4.7922515869140625 0.912920832633972168 -0.387085139751434326 0.129385888576507568
-2.84599208831787109 2.98400354385375977 5.49700021743774414 -0.796220183372497559 0.0522170551121234894 0.602749407291412354
-2.42059111595153809 5.06618881225585938 5.49700021743774414 0.136433854699134827 -0.671569466590881348 0.728272140026092529
-3.99695372581481934 2.54476213455200195 2.00489997863769531 -0.763812661170959473 0.64357602596282959 0.0489906147122383118
-5.49700021743774414 0.973441243171691895 4.48053932189941406 -0.959827959537506104 -0.25568738579750061 0.115560561418533325
-2.914398193359375 3.83665633201599121 2.85060000419616699 -0.961735844612121582 -0.188764959573745728 0.198574945330619812
-3.81410503387451172 -0.474259167909622192 0.976533949375152588 0.529063403606414795 -0.84853661060333252 -0.0088094836100935936
-0.113870382308959961 3.09436607360839844 5.49700021743774414 -0.140287712216377258 0.0182090029120445251 0.989943325519561768
-1.46525144577026367 0.518392324447631836 5.49700021743774414 0.140920519828796387 -0.43201369047164917 0.890789389610290527
-1.65088367462158203 -0.0604414939880371094 5.49700021743774414 -0.6195259690284729 -0.746669411659240723 0.242223650217056274
-3.58281469345092773 4.39877891540527344 3.30299210548400879 0.698686063289642334 -0.451403200626373291 -0.555043220520019531
-1.871559739112854 2.05693364143371582 2.93056917190551758 0.0637556016445159912 -0.377503961324691772 -0.923810601234436035
-5.49700021743774414 5.16813516616821289 2.53484988212585449 -0.998953402042388916 -0.0264076199382543564 -0.03734549880027771
-1.3521425724029541 2.12044024467468262 1.65299630165100098 -0.474186718463897705 0.826066851615905762 -0.304566025733947754
-2.06489825248718262 3.5684516429901123 5.49700021743774414 -0.553038716316223145 0.827826857566833496 0.0940790846943855286
-2.96308398246765137 5.49700021743774414 3.36420869827270508 -0.689078271389007568 0.690035581588745117 -0.221409082412719727
-1.96785223484039307 2.29728126525878906 2.61022257804870605 0.298157632350921631 -0.738917231559753418 -0.604237794876098633
-5.49699926376342773 0.473331928253173828 3.35219812393188477 -0.850007772445678711 -0.499745190143585205 -0.166557908058166504
-1.31395351886749268 1.75977528095245361 1.92205703258514404 -0.734730839729309082 0.246296137571334839 0.632067084312438965
-1.83634507656097412 2.06334853172302246 2.92667007446289062 0.127079591155052185 -0.515617191791534424 -0.847342729568481445
-0.151884078979492188 1.5866779088973999 5.49700021743774414 -0.311759322881698608 -0.00722074275836348534 0.950133681297302246
-2.4424431324005127 1.8013911247253418 2.67743420600891113 0.655920028686523438 -0.269976258277893066 -0.704898357391357422
-0.719199180603027344 5.49700021743774414 4.54846000671386719 -0.323099523782730103 0.879685938358306885 0.34894031286239624
-2.79498720169067383 5.49700021743774414 0.613155126571655273 0.445112437009811401 0.466516435146331787 0.764354169368743896
-0.00300000002607703209 4.78941583633422852 4.24623727798461914 0.795361638069152832 -0.566216588020324707 0.216330036520957947
-2.83521819114685059 3.58140993118286133 2.75070595741271973 -0.310864359140396118 -0.918267011642456055 0.245252922177314758
-0.620095252990722656 4.66192340850830078 5.49700021743774414 0.589818298816680908 -0.523775875568389893 0.614632606506347656
-2.03246307373046875 1.94434881210327148 1.75098788738250732 0.286014139652252197 -0.912667810916900635 0.291947633028030396
-5.49700021743774414 2.23051166534423828 5.05955791473388672 -0.633049428462982178 -0.223877251148223877 0.741031348705291748
-0.641722202301025391 1.62413525581359863 0.00300000002607703209 -0.130029156804084778 -0.540764987468719482 -0.831062972545623779
-0.975266695022583008 2.31532382965087891 5.49700021743774414 -0.800794720649719238 0.254709959030151367 0.54207998514175415
-4.2957606315612793 4.45550966262817383 5.49700021743774414 -0.338111817836761475 0.640523016452789307 0.689500212669372559
-0.00300000002607703209 5.25805091857910156 4.04957056045532227 0.450094372034072876 -0.888317525386810303 0.0911429673433303833
-0.998540043830871582 5.49700021743774414 1.32690322399139404 -0.0977511554956436157 0.720474362373352051 0.686557650566101074
-3.83358311653137207 4.32928800582885742 0.792860686779022217 -0.461979925632476807 -0.626325249671936035 -0.627926170825958252
-5.49700117111206055 1.28970885276794434 1.91134965419769287 -0.909518003463745117 -0.327623993158340454 -0.255811512470245361
-0.5232696533203125 3.29532527923583984 5.49700021743774414 -0.485320687294006348 -0.750267565250396729 0.448957055807113647
-5.49700021743774414 0.620916843414306641 0.739960432052612305 -0.49790656566619873 -0.742104053497314453 0.44874340295791626
-3.2339322566986084 3.89160776138305664 5.49700069427490234 -0.606066644191741943 -0.090840555727481842 0.790209650993347168
-0.464817523956298828 -0.0884275436401367188 5.49700021743774414 -0.976895809173583984 -0.0106431683525443077 0.21345105767250061
-0.0141873359680175781 5.49700021743774414 3.1954343318939209 -0.0182719919830560684 0.710446059703826904 -0.703514456748962402
-5.49700021743774414 2.77710771560668945 3.02005338668823242 -0.782695949077606201 -0.146564692258834839 -0.604901432991027832
-2.41648530960083008 1.90168070793151855 2.05009078979492188 0.379673272371292114 -0.804065108299255371 -0.457523345947265625
-5.49700021743774414 4.67457199096679688 4.32974433898925781 -0.701237916946411133 -0.464382559061050415 -0.540938317775726318
-0.387969493865966797 0.921987652778625488 0.00299976160749793053 -0.115911588072776794 -0.462567806243896484 -0.87897413969039917
-0.808638095855712891 5.49700021743774414 2.23845386505126953 -0.351763069629669189 0.502344667911529541 -0.789881348609924316
-1.23640108108520508 2.37097311019897461 0.359256118535995483 0.557223916053771973 -0.823729515075683594 0.104743592441082001
-5.49700021743774414 0.641384124755859375 0.739029407501220703 -0.798032104969024658 -0.331857293844223022 0.503006458282470703
-0.896819114685058594 1.72952485084533691 5.49700021743774414 -0.347194194793701172 0.522114336490631104 0.779007554054260254
-1.83757555484771729 4.62663888931274414 5.49700021743774414 -0.879223227500915527 0.469854086637496948 0.0787632018327713013
-1.88732409477233887 5.49700117111206055 4.24201011657714844 -0.410060495138168335 0.910015285015106201 -0.0610131360590457916
-4.50720691680908203 3.5224001407623291 5.49700021743774414 -0.0249418020248413086 -0.902824878692626953 0.429284512996673584
