ply
format ascii 1.0
element vertex 378
property float x
property float y
property float z
property float nx
property float ny
property float nz
end_header
-2.33823966979980469 2.13477015495300293 2.4705665111541748 -0.308858364820480347 -0.926395773887634277 -0.215400546789169312
-2.17866063117980957 1.44644284248352051 2.92546749114990234 0.482803195714950562 0.288680702447891235 -0.826779603958129883
-0.00300000002607703209 4.37066555023193359 0.154241800308227539 0.687907576560974121 0.722367823123931885 0.0704835876822471619
-3.47438383102416992 5.49700021743774414 3.37593221664428711 0.264425694942474365 0.897422850131988525 -0.3531455397605896
-0.00300000002607703209 2.92260098457336426 1.27825403213500977 0.893916964530944824 0.38336220383644104 0.232262745499610901
-1.27400803565979004 -0.955458164215087891 5.49700021743774414 0.143842324614524841 -0.643806159496307373 0.751547098159790039
-2.18976402282714844 2.14667749404907227 2.00070428848266602 0.651890873908996582 -0.739765822887420654 0.166688114404678345
-1.31248235702514648 1.33592820167541504 2.65507006645202637 -0.781013250350952148 0.49731910228729248 -0.377746105194091797
-5.49700021743774414 5.09054899215698242 0.840407848358154297 -0.981733620166778564 -0.00681561511009931564 0.190138533711433411
-2.16126894950866699 1.49934613704681396 2.95325636863708496 0.408378124237060547 0.0820166245102882385 -0.909120798110961914
-1.73569953441619873 1.79125809669494629 3.0339810848236084 0.028975464403629303 -0.1325550377368927 -0.990752041339874268
-0.00299952318891882896 4.67745447158813477 1.3490825891494751 0.961364626884460449 -0.131192430853843689 0.2420053631067276
-0.00300000002607703209 3.05147838592529297 4.40027332305908203 0.0170436222106218338 -0.862172842025756836 -0.506327450275421143
-2.39281797409057617 1.88212692737579346 2.71995091438293457 0.77807164192199707 -0.311185628175735474 -0.545681178569793701
-0.0456192493438720703 5.49700021743774414 3.02539300918579102 -0.0434158369898796082 0.982460677623748779 0.181345239281654358
-0.00300000002607703209 5.390289306640625 3.39754796028137207 0.618670523166656494 -0.0487249977886676788 0.784138143062591553
-0.00300000002607703209 -0.811390876770019531 0.216229915618896484 0.786136925220489502 -0.606468558311462402 0.119099244475364685
-4.75541925430297852 5.47620296478271484 5.49700021743774414 -0.868734896183013916 -0.333841830492019653 0.365854203701019287
-1.36777472496032715 2.12768197059631348 2.55176949501037598 -0.664857923984527588 -0.723837137222290039 -0.184455513954162598
-1.64537858963012695 1.7224961519241333 3.02225852012634277 -0.290780693292617798 -0.0917611345648765564 -0.952379405498504639
-0.0885694026947021484 0.344457626342773438 0.00300000002607703209 -0.344853401184082031 0.683142781257629395 -0.643732964992523193
-1.57107758522033691 1.92597854137420654 1.65299642086029053 0.0816749483346939087 -0.810367941856384277 -0.580200850963592529
-0.00300000002607703209 0.801607608795166016 4.29867744445800781 0.168944165110588074 -0.888262629508972168 -0.427138626575469971
-2.03254961967468262 1.80847632884979248 3.01179313659667969 0.205912873148918152 -0.795182883739471436 -0.570336818695068359
-1.97770452499389648 1.14884436130523682 2.80069565773010254 -0.0206554681062698364 0.493335843086242676 -0.86959373950958252
-2.20506572723388672 1.87457168102264404 2.91254210472106934 0.536769211292266846 -0.29922562837600708 -0.788887083530426025
-1.79486024379730225 1.42456793785095215 3.00845742225646973 -0.0743375346064567566 0.338968813419342041 -0.937856137752532959
-1.43075788021087646 2.90763664245605469 0.00300000002607703209 0.677524089813232422 0.491064190864562988 -0.547555506229400635
-1.54125118255615234 1.58455228805541992 2.9783015251159668 -0.421741396188735962 0.107980817556381226 -0.900263547897338867
-2.88871049880981445 5.49700021743774414 3.56281757354736328 -0.375431954860687256 0.859673857688903809 -0.346427112817764282
-1.34671282768249512 1.19533443450927734 5.49700021743774414 0.15831601619720459 -0.149777576327323914 0.97596275806427002
-1.76072502136230469 1.97120451927185059 1.74026966094970703 -0.941872537136077881 -0.199937626719474792 0.270001977682113647
-1.53043985366821289 1.73945772647857666 1.74277710914611816 -0.339910715818405151 -0.0914239883422851562 0.936003386974334717
-4.08749485015869141 3.37487173080444336 3.30299234390258789 -0.896686136722564697 -0.0168452560901641846 -0.44234621524810791
-1.73936629295349121 5.49700021743774414 0.127086639404296875 0.772617161273956299 0.634476244449615479 0.0224191863089799881
-2.92774772644042969 3.87969040870666504 1.13255882263183594 -0.733702003955841064 0.600798130035400391 0.317368805408477783
-0.00300000002607703209 3.2214806079864502 0.653982877731323242 0.780811429023742676 0.18191884458065033 0.597694814205169678
-0.0357379913330078125 4.57417392730712891 5.49700021743774414 0.295364797115325928 0.104591183364391327 0.949642181396484375
-5.49700021743774414 -0.361172676086425781 2.63928866386413574 -0.856175065040588379 -0.516022861003875732 -0.0261802077293395996
-2.30180191993713379 2.09367012977600098 2.65033411979675293 0.653407931327819824 -0.626610875129699707 -0.424755096435546875
-0.00300000002607703209 1.03891658782958984 0.0832705497741699219 0.93975597620010376 -0.334027111530303955 0.0726949349045753479
-0.00300000002607703209 1.03334355354309082 0.149338006973266602 0.498592495918273926 -0.826254606246948242 0.262123763561248779
-0.00300000002607703209 1.71759474277496338 2.25621771812438965 0.981852293014526367 0.00632774829864501953 -0.189542591571807861
-3.0096435546875 3.25772762298583984 5.49700021743774414 0.312102913856506348 -0.2524680495262146 0.915888547897338867
-1.97347843647003174 1.87267827987670898 3.00878620147705078 0.201847463846206665 -0.304425239562988281 -0.9309043288230896
-2.13703274726867676 1.18154728412628174 2.75792241096496582 0.443795859813690186 0.67170184850692749 -0.593179464340209961
-3.82049798965454102 2.59950065612792969 2.12001991271972656 0.267297923564910889 0.868192136287689209 0.418084055185317993
-2.39117074012756348 2.72211885452270508 0.00300000002607703209 -0.366101980209350586 0.303888589143753052 -0.879557311534881592
-0.42859649658203125 -0.914436817169189453 0.00300000002607703209 -0.0984738245606422424 -0.300805836915969849 -0.948587775230407715
-4.47949075698852539 1.18603372573852539 0.00300047686323523521 -0.393129885196685791 -0.0387338325381278992 -0.918666720390319824
-1.22880232334136963 0.876118123531341553 0.842516124248504639 -0.440938651561737061 -0.198300614953041077 -0.87535703182220459
-1.27173459529876709 1.92193341255187988 2.06601166725158691 -0.841188430786132812 -0.348015010356903076 0.413869142532348633
-3.59414863586425781 3.32396221160888672 3.30299210548400879 -0.683067083358764648 -0.0417743735015392303 -0.729159951210021973
-1.55382037162780762 2.14781522750854492 2.76160430908203125 -0.00630411505699157715 -0.430114448070526123 -0.902752399444580078
-1.67111635208129883 1.47897481918334961 3.00517082214355469 -0.237584769725799561 0.247908651828765869 -0.939199090003967285
-4.1658172607421875 0.567551851272583008 5.49700021743774414 -0.573925673961639404 -0.273016750812530518 0.772056937217712402
-0.00299976160749793053 4.14473724365234375 4.04178142547607422 0.879778444766998291 0.231628000736236572 -0.415136575698852539
-1.46394467353820801 2.1024622917175293 2.7375190258026123 -0.53615260124206543 -0.64010155200958252 -0.550282180309295654
-2.36925578117370605 1.94400370121002197 2.71258974075317383 0.763898611068725586 -0.390365779399871826 -0.51388096809387207
-5.26084804534912109 4.07165622711181641 0.00300000002607703209 -0.795755505561828613 -0.508607089519500732 -0.328773438930511475
-0.00300000002607703209 -0.829621076583862305 0.120357036590576172 0.661372900009155273 -0.647212505340576172 0.379080235958099365
-1.89559364318847656 1.51796972751617432 3.0363771915435791 0.0913537368178367615 0.202868938446044922 -0.974935293197631836
-3.64458727836608887 0.31986042857170105 0.74832528829574585 0.735747218132019043 -0.629537880420684814 -0.249716058373451233
-2.33297514915466309 2.11011838912963867 2.56112480163574219 0.682034671306610107 -0.648658990859985352 -0.337742865085601807
-1.61530768871307373 1.03736770153045654 2.18047547340393066 -0.386100530624389648 0.892235398292541504 0.234184384346008301
-2.09918403625488281 1.72895359992980957 3.0016014575958252 0.325801968574523926 -0.152748435735702515 -0.933017194271087646
-5.09433078765869141 5.2351531982421875 0.00300000002607703209 -0.865517556667327881 -0.0692346915602684021 -0.49607047438621521
-1.78973817825317383 2.2096097469329834 2.78326582908630371 -0.0753685757517814636 -0.776174604892730713 -0.625997245311737061
-2.14040708541870117 2.16512799263000488 1.98212695121765137 0.462326973676681519 -0.651905179023742676 0.601060271263122559
-1.57281947135925293 2.08446097373962402 1.65299630165100098 -0.0814022421836853027 0.531137704849243164 -0.843366503715515137
-3.59810853004455566 -0.329597502946853638 0.74832528829574585 -0.521065711975097656 0.109415531158447266 -0.846474289894104004
-1.79841327667236328 1.07901275157928467 2.72369074821472168 -0.0049069761298596859 0.321798652410507202 -0.946795403957366943
-1.79389631748199463 5.49700021743774414 3.47110271453857422 -0.146323949098587036 0.882145583629608154 0.447670102119445801
-3.20987200736999512 5.49700021743774414 4.81813430786132812 0.407714605331420898 0.641680777072906494 0.649626493453979492
-0.00300000002607703209 2.25868129730224609 2.5443873405456543 0.872444808483123779 0.444257438182830811 0.203655898571014404
-1.98764157295227051 1.35050833225250244 2.96037435531616211 0.164079785346984863 0.136597573757171631 -0.976943671703338623
-4.41076517105102539 -0.335024982690811157 0.779486358165740967 -0.217535749077796936 -0.461246669292449951 0.860191643238067627
-0.00300000002607703209 5.21127128601074219 5.40715980529785156 0.946127116680145264 -0.308569937944412231 -0.0981227979063987732
-0.225408792495727539 1.14769887924194336 0.00300000002607703209 -0.772813498973846436 -0.447253525257110596 -0.450248301029205322
-2.09849023818969727 1.08384203910827637 2.63323235511779785 0.378262788057327271 0.821115732192993164 -0.427418112754821777
-1.45373499393463135 1.86383616924285889 2.89664435386657715 -0.545708775520324707 -0.30432361364364624 -0.780761837959289551
-1.85953736305236816 2.30065584182739258 2.6309969425201416 0.0231615006923675537 -0.904123902320861816 -0.426642119884490967
-0.00300000002607703209 1.82168340682983398 5.43529176712036133 0.412493586540222168 0.723731577396392822 -0.553228378295898438
-3.6408836841583252 4.38906526565551758 1.9340970516204834 0.6756630539894104 -0.705208957195281982 0.214848190546035767
-1.45537316799163818 1.93185520172119141 2.86707758903503418 -0.36719784140586853 -0.414170265197753906 -0.8328438401222229
-2.29512596130371094 1.30826342105865479 2.74365091323852539 0.662539362907409668 0.504646420478820801 -0.553510308265686035
-0.227324724197387695 -0.243808507919311523 0.00300023844465613365 -0.0764291509985923767 -0.401552170515060425 -0.912641465663909912
-0.139733552932739258 5.49700021743774414 2.50176596641540527 0.565772771835327148 0.177297219634056091 -0.805274426937103271
-0.0741071701049804688 -0.357924461364746094 0.00300000002607703209 -0.119292981922626495 0.742929756641387939 -0.658653616905212402
-5.49700021743774414 1.28744101524353027 5.40957212448120117 -0.689743340015411377 -0.722854197025299072 -0.0416647978127002716
-2.40153765678405762 2.06285738945007324 5.49700021743774414 -0.114099115133285522 -0.00530523061752319336 0.993455290794372559
-3.09020161628723145 5.49700021743774414 4.41866302490234375 -0.658310592174530029 0.421425819396972656 -0.623720645904541016
-1.00073122978210449 3.99084329605102539 5.49700021743774414 0.204334259033203125 0.575590312480926514 0.791797757148742676
-2.05275797843933105 1.50193321704864502 3.00077438354492188 0.311975717544555664 0.239601105451583862 -0.919381618499755859
-1.73341429233551025 1.45029795169830322 3.00998353958129883 -0.199067562818527222 0.271268069744110107 -0.94169306755065918
-2.14119529724121094 1.3238290548324585 2.88370466232299805 0.432144522666931152 0.479226291179656982 -0.76393282413482666
-1.17245578765869141 1.73798096179962158 2.21086955070495605 -0.976253509521484375 -0.150756180286407471 0.155569061636924744
-1.37895834445953369 2.17430686950683594 2.31035828590393066 -0.641214132308959961 -0.759409308433532715 0.110190972685813904
-2.21730399131774902 2.10512971878051758 2.74095034599304199 0.543620526790618896 -0.636933386325836182 -0.546619296073913574
-2.12810087203979492 2.12170076370239258 2.79509997367858887 0.416685909032821655 -0.661756634712219238 -0.623258471488952637
-1.98955452442169189 1.67207980155944824 3.03881287574768066 0.242589652538299561 -0.0137674175202846527 -0.970031321048736572
-2.37591218948364258 3.70042133331298828 0.00299976160749793053 0.209337085485458374 0.034204043447971344 -0.977245151996612549
-2.30175232887268066 2.17604589462280273 2.27497220039367676 0.651315569877624512 -0.753219246864318848 0.0919174998998641968
-2.99533486366271973 5.49700021743774414 3.32495689392089844 0.233593732118606567 0.92497783899307251 0.299750030040740967
-2.2596287727355957 1.83705711364746094 2.88624048233032227 0.599187552928924561 -0.229059815406799316 -0.767141401767730713
-1.65047824382781982 2.14542174339294434 2.81903719902038574 -0.263420581817626953 -0.69912254810333252 -0.664708495140075684
-2.37593436241149902 2.08414006233215332 2.4966733455657959 0.763874828815460205 -0.597348511219024658 -0.24427446722984314
-2.31244158744812012 1.69935798645019531 2.86829948425292969 0.683603346347808838 -0.0592156089842319489 -0.727447569370269775
-3.25110149383544922 2.43328166007995605 5.49700021743774414 -0.39607653021812439 0.216609090566635132 0.892302751541137695
-3.13786411285400391 2.77590012550354004 0.00300000002607703209 -0.132861122488975525 0.406931310892105103 -0.903744876384735107
-0.00300000002607703209 -0.353577136993408203 0.643155813217163086 0.227855890989303589 -0.790277957916259766 0.568807899951934814
-5.49700021743774414 2.02696347236633301 0.432813167572021484 -0.774673879146575928 0.584681689739227295 -0.240889295935630798
-1.60761606693267822 1.60886693000793457 3.00950765609741211 -0.331873148679733276 0.0676071420311927795 -0.940898239612579346
-0.755628108978271484 4.86713457107543945 5.49700021743774414 -0.248032182455062866 0.581941902637481689 0.774482786655426025
-0.00300000002607703209 4.74869346618652344 4.96652841567993164 0.674473047256469727 -0.551605403423309326 -0.490731656551361084
-0.319124937057495117 5.47466516494750977 5.49700021743774414 0.180321395397186279 -0.118352197110652924 0.976461470127105713
-1.54730415344238281 1.34756815433502197 1.65299642086029053 -0.38851580023765564 0.406583487987518311 -0.826888978481292725
-2.01801061630249023 1.41868281364440918 2.98401808738708496 0.365428507328033447 0.0200937502086162567 -0.930622458457946777
-1.59760773181915283 1.47946012020111084 1.73584890365600586 -0.607375144958496094 0.000644862651824951172 0.794414937496185303
-1.46527767181396484 5.49700021743774414 3.12948489189147949 0.636180341243743896 0.46618962287902832 -0.61476975679397583
-2.21595263481140137 2.11421966552734375 2.73141002655029297 0.470202386379241943 -0.440189003944396973 -0.764946699142456055
-1.91974639892578125 2.24259209632873535 2.73255658149719238 0.0692059025168418884 -0.860765755176544189 -0.504274725914001465
-0.00300000002607703209 1.80852603912353516 1.72599351406097412 0.924416244029998779 -0.0378475300967693329 0.379502683877944946
-1.57115089893341064 1.69595074653625488 2.99665355682373047 -0.267495155334472656 -0.0282845273613929749 -0.96314394474029541
-3.92018651962280273 5.34520530700683594 5.49700021743774414 -0.395646572113037109 0.702941536903381348 0.591047048568725586
-1.96837520599365234 2.24456453323364258 2.00026917457580566 0.191309019923210144 -0.864156007766723633 0.465440899133682251
-0.00300047686323523521 2.0753018856048584 0.619486331939697266 0.932222425937652588 -0.28650018572807312 -0.221086129546165466
-1.68581140041351318 2.28326797485351562 2.62606263160705566 -0.228842943906784058 -0.874939620494842529 -0.426745355129241943
-0.00300000002607703209 -0.184907436370849609 3.34525775909423828 0.216414660215377808 -0.65692603588104248 0.722227692604064941
-1.90537512302398682 2.30015659332275391 2.62619209289550781 0.0660722851753234863 -0.902007341384887695 -0.426634848117828369
-2.28684663772583008 1.63082039356231689 2.89096856117248535 0.648604214191436768 0.0356348752975463867 -0.760291218757629395
-1.67150223255157471 1.74862897396087646 3.02685832977294922 -0.229616701602935791 -0.133487716317176819 -0.964083611965179443
-1.59434866905212402 1.9615943431854248 1.78220641613006592 -0.395580857992172241 -0.471609711647033691 0.788099050521850586
-2.94218730926513672 5.49700021743774414 5.14589595794677734 -0.000918967067264020443 0.691667675971984863 0.72221529483795166
-3.91361331939697266 1.0498054027557373 5.49700021743774414 -0.5470162034034729 -0.163874402642250061 0.820925354957580566
-1.44677925109863281 1.85429477691650391 2.89503216743469238 -0.560849308967590332 -0.297693431377410889 -0.77254563570022583
-2.25040912628173828 2.67357039451599121 0.875503420829772949 -0.917905986309051514 -0.386449426412582397 -0.0900301560759544373
-0.233096599578857422 1.06215298175811768 5.49700021743774414 -0.19949011504650116 -0.483178526163101196 0.85249173641204834
-2.31448554992675781 1.28787767887115479 2.69749641418457031 0.688759207725524902 0.516136527061462402 -0.509130477905273438
-0.22066807746887207 0.340529680252075195 5.49700021743774414 -0.12996964156627655 0.124511569738388062 0.983669042587280273
-2.04575777053833008 1.00498557090759277 2.39313030242919922 0.286195546388626099 0.958155512809753418 0.0054964311420917511
-2.59381198883056641 3.44167137145996094 0.00300000002607703209 0.311708539724349976 0.075883127748966217 -0.947142899036407471
-1.76796543598175049 1.69190990924835205 3.04993033409118652 -0.126990273594856262 -0.0946410298347473145 -0.987378716468811035
-3.71339011192321777 3.12202334403991699 3.30299258232116699 0.582472503185272217 -0.256704986095428467 -0.77125096321105957
-2.27023100852966309 2.20593380928039551 2.41486191749572754 0.612735152244567871 -0.783689975738525391 -0.101910516619682312
-2.0245063304901123 1.50317800045013428 3.00957465171813965 0.281737148761749268 0.218070715665817261 -0.934381842613220215
-4.55711936950683594 -0.117129810154438019 0.92908012866973877 -0.567535102367401123 -0.547469198703765869 -0.614964544773101807
-1.21806478500366211 1.90051615238189697 2.53417301177978516 -0.236373588442802429 -0.552562534809112549 -0.799251079559326172
-1.97581076622009277 3.48783636093139648 5.49700021743774414 -0.032693125307559967 0.502140045166015625 0.864168465137481689
-2.90991973876953125 2.88196992874145508 1.13947725296020508 -0.953275799751281738 0.292620241641998291 0.0750909894704818726
-1.91303730010986328 1.62371945381164551 3.0498960018157959 0.0897423923015594482 0.0488312020897865295 -0.994767189025878906
-1.94509756565093994 2.23200345039367676 2.74300575256347656 0.152262359857559204 -0.824020266532897949 -0.54571688175201416
-1.17280185222625732 5.49700021743774414 3.64128255844116211 -0.31354224681854248 0.721636176109313965 -0.617197275161743164
-2.92056393623352051 5.49700021743774414 0.813959479331970215 -0.771207273006439209 0.598302900791168213 0.217423483729362488
-0.936954975128173828 -0.35228729248046875 0.00300000002607703209 -0.130851477384567261 -0.670602381229400635 -0.730185151100158691
-1.41322743892669678 2.14546728134155273 2.10877466201782227 -0.343860030174255371 -0.557850122451782227 -0.755356550216674805
-5.49700021743774414 5.24659442901611328 5.26669788360595703 -0.99634319543838501 -0.0543190687894821167 -0.065952397882938385
-2.11880135536193848 1.94343841075897217 2.93169951438903809 0.394482433795928955 -0.404689580202102661 -0.82499086856842041
-1.23401665687561035 1.34543716907501221 2.41724586486816406 -0.919661223888397217 0.391045570373535156 -0.0361466892063617706
-2.51462459564208984 2.31890130043029785 5.49700021743774414 -0.193822622299194336 0.199731886386871338 0.960489869117736816
-3.95234847068786621 3.50276446342468262 3.30299234390258789 -0.536615192890167236 0.838619589805603027 -0.0936013460159301758
-1.37895345687866211 1.80991017818450928 2.85206341743469238 -0.636071145534515381 -0.221846252679824829 -0.739051938056945801
-2.0536186695098877 2.21011781692504883 2.73007035255432129 0.3036690354347229 -0.779564440250396729 -0.54778134822845459
-5.49700021743774414 4.750091552734375 1.48762154579162598 -0.989838838577270508 0.00180078798439353704 -0.142182573676109314
-1.30658161640167236 -0.910537242889404297 5.49699974060058594 -0.42353510856628418 -0.206324145197868347 0.882070481777191162
-1.13274002075195312 3.98257970809936523 5.49700021743774414 0.182629823684692383 0.591239452362060547 0.785545945167541504
-1.32686901092529297 1.26255035400390625 2.57882452011108398 -0.747426986694335938 0.496882200241088867 -0.440977364778518677
-2.35086750984191895 1.5598829984664917 2.81884932518005371 0.730713486671447754 0.160474926233291626 -0.663555324077606201
-2.63980627059936523 1.93891787528991699 0.0832782983779907227 0.411496937274932861 -0.482133954763412476 0.773444950580596924
-2.13613128662109375 1.8301088809967041 2.96627259254455566 0.417724192142486572 -0.248983472585678101 -0.873792648315429688
-0.231105327606201172 3.9116816520690918 0.00300000002607703209 -0.374227851629257202 -0.647902548313140869 -0.66345745325088501
-1.5229640007019043 2.45648813247680664 0.546110272407531738 -0.633316159248352051 -0.77164006233215332 0.059011995792388916
-0.00300000002607703209 1.24639606475830078 4.33931732177734375 0.680505037307739258 -0.16063392162322998 0.714919507503509521
-5.49700021743774414 -0.289618015289306641 1.73698985576629639 -0.782974004745483398 -0.621695935726165771 0.0211161058396100998
-1.87040042877197266 1.01838266849517822 2.60167145729064941 0.125220328569412231 0.728265583515167236 -0.673757433891296387
-2.01569390296936035 1.12799286842346191 2.76003289222717285 0.260024011135101318 0.760835528373718262 -0.594572901725769043
-2.0687563419342041 2.15250945091247559 2.79652905464172363 0.314240723848342896 -0.709117531776428223 -0.631193399429321289
-2.00179433822631836 1.04689085483551025 2.09095501899719238 0.417156338691711426 0.403857320547103882 -0.814174413681030273
-5.49700021743774414 0.501615524291992188 2.99420809745788574 -0.662177920341491699 0.191338479518890381 0.724506735801696777
-0.00300000002607703209 3.24222373962402344 1.29147195816040039 0.879390597343444824 0.459198147058486938 0.125734701752662659
-1.89866256713867188 2.34736442565917969 2.45441365242004395 0.077096693217754364 -0.98560410737991333 -0.150467962026596069
-1.48699355125427246 1.77111351490020752 2.94430708885192871 -0.541958153247833252 -0.105396263301372528 -0.833770394325256348
-5.49700021743774414 5.28433609008789062 2.59272861480712891 -0.567169904708862305 0.0934808999300003052 -0.81827843189239502
-1.99910783767700195 1.84635019302368164 3.01114535331726074 0.185101121664047241 -0.301099598407745361 -0.935455322265625
-3.11187624931335449 0.0734813213348388672 0.00300000002607703209 0.331551253795623779 -0.41998058557510376 -0.844801783561706543
-0.378354072570800781 3.87066435813903809 0.00300000002607703209 0.152889981865882874 -0.853221356868743896 -0.498636096715927124
-1.38362765312194824 1.3544461727142334 1.94391584396362305 -0.832271099090576172 0.357072412967681885 0.424056798219680786
-2.33737039566040039 1.88596725463867188 2.79135775566101074 0.708522796630859375 -0.327922523021697998 -0.624869883060455322
-3.93657350540161133 3.86218929290771484 3.30299210548400879 0.494770139455795288 0.73904573917388916 -0.457180500030517578
-2.23929786682128906 2.04017305374145508 2.78579330444335938 0.570081710815429688 -0.533402562141418457 -0.62489086389541626
-2.22996640205383301 1.7631450891494751 2.92662715911865234 0.541389703750610352 -0.157859131693840027 -0.82581937313079834
-0.939376115798950195 4.12292861938476562 5.49700021743774414 -0.429132550954818726 -0.650040388107299805 0.627130568027496338
-2.43800163269042969 1.54219818115234375 2.69126224517822266 0.841557979583740234 0.179824322462081909 -0.509355843067169189
-1.70240545272827148 1.52124905586242676 3.02384328842163086 -0.207747071981430054 0.210230693221092224 -0.955324172973632812
-0.00300000002607703209 0.211333036422729492 5.21871280670166016 0.644485890865325928 -0.750976383686065674 -0.143778875470161438
-2.0937647819519043 2.3088226318359375 2.33141064643859863 0.370346307754516602 -0.928889095783233643 -0.00294250622391700745
-3.05923128128051758 3.20092034339904785 5.49700021743774414 0.482574969530105591 -0.404340028762817383 0.776936769485473633
-1.85903096199035645 3.34730768203735352 5.49700021743774414 -0.00399606674909591675 0.473657608032226562 0.880700349807739258
-1.89831483364105225 1.81144618988037109 3.03635454177856445 0.149222865700721741 -0.292187660932540894 -0.944647550582885742
-1.68658089637756348 2.31906509399414062 2.51819610595703125 -0.203621178865432739 -0.948697924613952637 -0.24188975989818573
-2.44322800636291504 0.667844057083129883 5.49700069427490234 -0.185278505086898804 -0.310042977333068848 0.932494521141052246
-1.31259322166442871 2.03192949295043945 2.11026906967163086 -0.782664656639099121 -0.514247417449951172 0.350693047046661377
-0.315286874771118164 2.86557459831237793 5.49699926376342773 -0.0603762604296207428 0.198790580034255981 0.978180468082427979
-1.29727506637573242 1.86493897438049316 2.73341560363769531 -0.786081433296203613 -0.31216922402381897 -0.533503890037536621
-1.79688429832458496 1.43969261646270752 3.01423406600952148 0.0157775096595287323 0.224482446908950806 -0.974350333213806152
-2.26671934127807617 2.19407510757446289 2.21936655044555664 0.626138091087341309 -0.773113727569580078 -0.101223930716514587
-1.91209495067596436 1.83154189586639404 3.0301816463470459 0.114522635936737061 -0.26044696569442749 -0.958672046661376953
-1.04560768604278564 4.06538152694702148 0.00300000002607703209 -0.0812277495861053467 0.930618166923522949 -0.356864094734191895
-1.0892869234085083 1.343636155128479 0.084820091724395752 -0.218065470457077026 0.515535831451416016 0.828655660152435303
-0.189971446990966797 5.49700021743774414 0.425041675567626953 -0.125307038426399231 0.945365250110626221 -0.30096966028213501
-5.49700021743774414 1.90061235427856445 4.74275493621826172 -0.841389656066894531 0.0521141737699508667 0.537910282611846924
-2.15067648887634277 4.06388425827026367 5.49700021743774414 0.173904061317443848 0.0489672012627124786 0.983544468879699707
-2.10332989692687988 1.87592113018035889 2.96706628799438477 0.392033040523529053 -0.30459904670715332 -0.868060827255249023
-5.49700021743774414 0.930886745452880859 3.95640850067138672 -0.898347258567810059 -0.206606894731521606 0.38766711950302124
-3.01641750335693359 5.49700021743774414 1.61242353916168213 0.0259974729269742966 0.610512793064117432 -0.791579663753509521
-1.59122741222381592 3.76852655410766602 5.49700021743774414 -0.555132865905761719 0.0583026222884654999 0.8297157883644104
-2.32999444007873535 5.49700021743774414 4.35567808151245117 -0.0509078800678253174 0.656469881534576416 -0.752632498741149902
-1.91776978969573975 2.03094816207885742 2.94372248649597168 0.0661897957324981689 -0.390344917774200439 -0.918286323547363281
-2.22915196418762207 1.21697020530700684 2.71867728233337402 0.55040276050567627 0.624178051948547363 -0.554489552974700928
-1.99440610408782959 2.28258872032165527 2.63160824775695801 0.196401715278625488 -0.883180499076843262 -0.425932526588439941
-2.04908609390258789 1.23166728019714355 2.85904216766357422 0.311987489461898804 0.595575809478759766 -0.740238726139068604
-0.00300023844465613365 4.38664674758911133 2.15269374847412109 0.870459675788879395 0.240563422441482544 -0.429451614618301392
-2.48087716102600098 1.92750847339630127 2.3035888671875 0.827574253082275391 -0.43018263578414917 -0.360643565654754639
-5.22285318374633789 5.49700021743774414 4.82815217971801758 -0.559143781661987305 0.742195725440979004 -0.369464069604873657
-1.88849759101867676 2.26795721054077148 2.69529199600219727 0.0768859311938285828 -0.855817675590515137 -0.511531710624694824
-1.86855840682983398 4.18464326858520508 0.00300000002607703209 0.0927290543913841248 -0.579625785350799561 -0.809589564800262451
-0.00300000002607703209 3.69913578033447266 4.50818729400634766 0.668575882911682129 0.627140045166015625 -0.399626880884170532
-5.49699974060058594 1.1401207447052002 1.37864327430725098 -0.859494864940643311 -0.49797937273979187 0.115261249244213104
-2.5093076229095459 1.74524044990539551 2.18878579139709473 0.665605068206787109 -0.53937917947769165 0.515790641307830811
-1.66300880908966064 1.26600134372711182 2.89627885818481445 -0.294786751270294189 0.513660848140716553 -0.805762648582458496
-1.1594165563583374 5.49700021743774414 0.498014450073242188 -0.284594357013702393 0.910151839256286621 -0.301047593355178833
-3.63827371597290039 0.499821901321411133 5.49700021743774414 -0.474172353744506836 -0.314360857009887695 0.822397828102111816
-2.19234061241149902 1.49571442604064941 2.93427085876464844 0.515652120113372803 0.242778584361076355 -0.821682095527648926
-2.03858232498168945 1.61984443664550781 3.02439069747924805 0.273231387138366699 0.0530464276671409607 -0.960484683513641357
-1.5430910587310791 3.53090929985046387 5.49700021743774414 0.523461461067199707 -0.195229887962341309 0.829381346702575684
-3.70601534843444824 0.46803399920463562 0.74832528829574585 -0.533164262771606445 -0.500042974948883057 -0.682416975498199463
-1.82870054244995117 2.31139111518859863 2.11256837844848633 -0.233644574880599976 -0.917459428310394287 -0.321991264820098877
-0.00300000002607703209 2.1171720027923584 5.34574031829833984 0.535710155963897705 0.125593990087509155 0.835009574890136719
-1.82489645481109619 5.49700021743774414 3.33398222923278809 -0.524413228034973145 0.849519252777099609 -0.0575129985809326172
-1.96334314346313477 2.34452366828918457 2.39943575859069824 0.229673862457275391 -0.973258256912231445 0.00428092479705810547
-2.21494555473327637 1.51963567733764648 2.92637419700622559 0.53101193904876709 0.198328793048858643 -0.823827624320983887
-0.370506525039672852 2.33474874496459961 5.49700021743774414 -0.26432463526725769 0.932876408100128174 0.244691923260688782
-2.12683773040771484 1.99127328395843506 1.81521487236022949 0.297607481479644775 -0.740712285041809082 0.602308094501495361
-5.22585105895996094 1.46049153804779053 0.00300000002607703209 -0.834410727024078369 -0.488630712032318115 -0.254948526620864868
-5.49700069427490234 3.83252382278442383 4.31014299392700195 -0.899830162525177002 -0.320202261209487915 0.296270430088043213
-0.762316226959228516 3.23170971870422363 5.49700021743774414 0.05773182213306427 0.252485454082489014 0.965876877307891846
-1.70855987071990967 1.0240703821182251 2.57906556129455566 0.0230375174432992935 0.313450038433074951 -0.949325203895568848
-2.30297207832336426 1.23742377758026123 2.64952826499938965 0.662601947784423828 0.615374982357025146 -0.426933705806732178
-0.0884447097778320312 0.302574396133422852 0.00300000002607703209 -0.535951316356658936 -0.33432498574256897 -0.775230884552001953
-2.37666797637939453 1.49764394760131836 2.76787853240966797 0.771533489227294922 0.240181684494018555 -0.589108586311340332
-1.92252457141876221 1.39236605167388916 2.99239349365234375 0.106219075620174408 0.371564358472824097 -0.922310948371887207
-2.86408782005310059 3.67447471618652344 0.796485602855682373 0.102819539606571198 -0.753689587116241455 0.649137973785400391
-2.05096721649169922 1.61207842826843262 1.65299606323242188 0.827873110771179199 0.143372148275375366 -0.542282760143280029
-5.49700021743774414 4.13405323028564453 3.36361575126647949 -0.681084394454956055 -0.424247294664382935 -0.596773207187652588
-1.71263730525970459 1.33417761325836182 2.95457696914672852 -0.177809208631515503 0.475718677043914795 -0.861438155174255371
-2.38735532760620117 1.47133934497833252 2.74121737480163574 0.79319465160369873 0.25214993953704834 -0.554312825202941895
-1.45706856250762939 5.49700021743774414 3.03124570846557617 0.108128055930137634 0.981222987174987793 0.159718126058578491
-5.49700021743774414 3.30631089210510254 2.74085903167724609 -0.159988433122634888 -0.226992115378379822 -0.960665524005889893
-1.53680324554443359 2.26619815826416016 2.50727534294128418 -0.424299329519271851 -0.87225109338760376 -0.243203818798065186
-1.67712235450744629 1.49189221858978271 3.0104215145111084 -0.233649194240570068 0.251278966665267944 -0.939290702342987061
-2.14469480514526367 1.06478893756866455 1.65299618244171143 0.694585859775543213 0.194306701421737671 -0.692672610282897949
-1.84277939796447754 2.22479128837585449 2.76652264595031738 -0.236154511570930481 -0.669681906700134277 -0.704100370407104492
-1.59948217868804932 2.24638652801513672 2.6430516242980957 -0.356148064136505127 -0.83226090669631958 -0.424853384494781494
-0.00300000002607703209 3.71014523506164551 4.55727148056030273 0.205208361148834229 -0.514030516147613525 0.832863807678222656
-5.49700021743774414 2.94494819641113281 5.42470550537109375 -0.914952099323272705 0.400707036256790161 -0.0479220263659954071
-0.00300047686323523521 -0.151039361953735352 0.365178108215332031 0.58546137809753418 -0.354070305824279785 -0.729293644428253174
-0.426929473876953125 5.22060298919677734 0.00300000002607703209 0.347456544637680054 0.530022859573364258 -0.773530721664428711
-2.35062742233276367 2.11307716369628906 2.50086665153503418 0.734083056449890137 -0.635113179683685303 -0.240319222211837769
-2.32112956047058105 2.69467473030090332 0.472563385963439941 0.289359033107757568 -0.738905608654022217 -0.60851442813873291
-0.406310319900512695 4.47019195556640625 0.00299952318891882896 0.38429415225982666 0.0223674345761537552 -0.922939717769622803
-2.38483452796936035 1.90163111686706543 2.71974277496337891 0.432581126689910889 -0.353163570165634155 -0.829547405242919922
-0.89519655704498291 0.193054914474487305 5.49700021743774414 -0.397857040166854858 -0.030117599293589592 0.916952967643737793
-0.0261061191558837891 -0.0927083492279052734 0.00300000002607703209 -0.0393620021641254425 0.79219818115234375 -0.608993172645568848
-1.5484999418258667 2.00135016441345215 2.88828682899475098 -0.464763343334197998 -0.657054126262664795 -0.593527555465698242
-3.06854104995727539 4.33355712890625 1.99618113040924072 -0.665795862674713135 0.253786027431488037 -0.701647043228149414
-1.8284912109375 0.338933706283569336 5.49700021743774414 0.00742173008620738983 -0.448003113269805908 0.894001126289367676
-1.24628174304962158 2.01105237007141113 2.3879692554473877 -0.820369482040405273 -0.38020014762878418 -0.427132099866867065
-2.96137857437133789 5.15996932983398438 5.49700021743774414 -0.780975162982940674 -0.0892276912927627563 0.618155479431152344
-2.41453385353088379 1.33865678310394287 2.57193541526794434 0.806522488594055176 0.400891244411468506 -0.43452000617980957
-2.75459933280944824 3.92618417739868164 0.00300000002607703209 -0.229500710964202881 0.926648437976837158 -0.297745078802108765
-2.07737255096435547 2.14913630485534668 2.79573607444763184 0.349389076232910156 -0.630222439765930176 -0.693359196186065674
-2.39988923072814941 1.7509690523147583 2.76210927963256836 0.795367002487182617 -0.149517178535461426 -0.587397575378417969
-2.97074413299560547 5.23350429534912109 0.00300000002607703209 0.0457122437655925751 0.847071707248687744 -0.529509127140045166
-1.49185097217559814 5.49700021743774414 2.05897235870361328 0.0940682217478752136 0.991294324398040771 -0.0921277999877929688
-2.01632261276245117 1.93455886840820312 2.97488284111022949 0.237961918115615845 -0.381253033876419067 -0.89331972599029541
-2.19610762596130371 2.14411282539367676 2.71308708190917969 0.504259824752807617 -0.69890296459197998 -0.507204771041870117
-2.12504744529724121 2.29511785507202148 2.31827640533447266 0.432600319385528564 -0.901402711868286133 0.018168499693274498
-2.47364592552185059 1.72965431213378906 2.6370847225189209 0.89596247673034668 -0.118518471717834473 -0.4280242919921875
-2.29036879539489746 1.84343838691711426 2.85784196853637695 0.635249137878417969 -0.256624698638916016 -0.728424668312072754
-3.51243996620178223 3.14745116233825684 3.30299234390258789 0.530375421047210693 -0.153409063816070557 -0.8337668776512146
-5.49700021743774414 1.12272310256958008 4.03733158111572266 -0.903539776802062988 -0.137761592864990234 0.405755937099456787
-2.04881191253662109 2.07357215881347656 2.880035400390625 0.285133481025695801 -0.576423108577728271 -0.765790581703186035
-4.509002685546875 -0.142024695873260498 0.74832528829574585 0.863153338432312012 0.191799983382225037 -0.467096447944641113
-2.21533393859863281 1.6623384952545166 2.94474506378173828 0.52310025691986084 0.0019281427375972271 -0.852268993854522705
-5.33676481246948242 4.35722637176513672 0.00299952318891882896 -0.261863887310028076 -0.0882869362831115723 -0.961058139801025391
-1.90311706066131592 1.17036736011505127 2.84002971649169922 0.0980586633086204529 0.700775384902954102 -0.706610441207885742
-1.23643696308135986 1.97012746334075928 2.48355746269226074 -0.875788331031799316 -0.431003570556640625 -0.21732647716999054
-0.00483918190002441406 5.49700021743774414 2.48573923110961914 0.788694560527801514 0.578576803207397461 0.207869574427604675
-2.12576937675476074 2.29185390472412109 2.43157267570495605 0.349379181861877441 -0.909317612648010254 -0.225999534130096436
-3.00978302955627441 4.14414262771606445 3.01672983169555664 -0.547066926956176758 -0.760339498519897461 -0.350145161151885986
-2.07277464866638184 2.1033015251159668 1.65299630165100098 -0.228236019611358643 0.418243169784545898 -0.879193484783172607
-2.24931454658508301 1.87321507930755615 1.83546531200408936 0.787766814231872559 -0.442283838987350464 0.428728848695755005
-1.81456136703491211 1.21061551570892334 2.88129210472106934 -0.0347446687519550323 0.636134028434753418 -0.770795822143554688
-1.72300899028778076 1.53173267841339111 3.03016328811645508 -0.176918551325798035 0.19437137246131897 -0.964841723442077637
-2.30029582977294922 2.0977180004119873 2.64647340774536133 0.656588077545166016 -0.625620126724243164 -0.42129749059677124
-0.208153247833251953 3.79294013977050781 5.49699974060058594 0.201741874217987061 0.13073866069316864 0.970673799514770508
-2.47061014175415039 1.37773406505584717 2.40299701690673828 0.58603370189666748 0.0244579240679740906 -0.809917449951171875
-1.96790158748626709 2.16516733169555664 2.82209587097167969 0.173837274312973022 -0.728654980659484863 -0.662451982498168945
-2.81325101852416992 3.53629064559936523 0.00300000002607703209 -0.111613884568214417 0.466189682483673096 -0.877615869045257568
-2.22456669807434082 1.20577287673950195 2.00730681419372559 0.619896233081817627 0.595800340175628662 0.510637521743774414
-3.69161319732666016 4.37332773208618164 0.11445915699005127 -0.446363896131515503 -0.892444431781768799 0.0655914917588233948
-5.49700021743774414 0.494840860366821289 3.27755594253540039 -0.353435903787612915 -0.667405307292938232 -0.655479371547698975
-1.69528341293334961 2.50791144371032715 0.0437263250350952148 -0.814979732036590576 -0.3075295090675354 -0.491155356168746948
-1.92645883560180664 5.01106357574462891 5.49700021743774414 0.344555556774139404 0.131106287240982056 0.929565846920013428
-2.33976507186889648 1.19868814945220947 2.47647452354431152 0.718912601470947266 0.666981220245361328 -0.195705950260162354
-1.94163703918457031 3.36193704605102539 0.00300000002607703209 -0.605332791805267334 0.615941107273101807 -0.504171311855316162
-2.36348724365234375 2.11448025703430176 2.4331963062286377 0.592538714408874512 -0.798309028148651123 -0.107706412672996521
-1.48915410041809082 1.8215031623840332 2.93421196937561035 -0.505203723907470703 -0.239369034767150879 -0.829139113426208496
-2.50650238990783691 1.83925020694732666 2.26817107200622559 0.962203860282897949 -0.214792490005493164 0.16741567850112915
-1.27299618721008301 1.99483954906463623 2.14960980415344238 -0.833068132400512695 -0.488932877779006958 0.258731663227081299
-4.51873683929443359 0.270499348640441895 0.74832528829574585 0.77773815393447876 -0.205389901995658875 -0.594086170196533203
-1.99137043952941895 2.25823044776916504 2.683349609375 -0.115418195724487305 -0.912691950798034668 -0.392010390758514404
-5.49700021743774414 -0.116859912872314453 2.79197931289672852 -0.77969968318939209 -0.441954523324966431 0.443558961153030396
-3.33119964599609375 5.49700021743774414 1.03898370265960693 -0.159440666437149048 0.742532670497894287 -0.650556623935699463
-2.06767129898071289 1.23534858226776123 2.85418438911437988 0.320484757423400879 0.599107980728149414 -0.733729660511016846
-5.49700021743774414 1.05072915554046631 1.24568676948547363 -0.907647907733917236 0.327033936977386475 0.263104557991027832
-1.97137987613677979 2.23556828498840332 2.72919702529907227 0.181529909372329712 -0.813219249248504639 -0.552920758724212646
-2.80070304870605469 2.91585016250610352 1.46954798698425293 -0.501168012619018555 0.730531871318817139 -0.463846087455749512
-1.77259385585784912 2.53098201751708984 1.49124956130981445 0.653331220149993896 -0.756921231746673584 -0.0151185272261500359
-2.19399523735046387 2.04048466682434082 1.89241719245910645 0.507299542427062988 -0.55510413646697998 0.659171164035797119
-1.66632771492004395 1.47770977020263672 3.00352954864501953 -0.229072242975234985 0.248167663812637329 -0.941243231296539307
-1.73856663703918457 2.34041142463684082 2.2541196346282959 -0.178425729274749756 -0.967196941375732422 0.18081548810005188
-2.49834871292114258 3.86035990715026855 0.00300000002607703209 0.19945622980594635 0.424021512269973755 -0.883415579795837402
-1.97338223457336426 1.36880326271057129 2.97305941581726074 0.188830554485321045 0.392218649387359619 -0.900281906127929688
-2.53463363647460938 1.67036175727844238 2.34252643585205078 0.998226046562194824 -0.0567405633628368378 0.0180351324379444122
-5.49700021743774414 5.16930007934570312 0.399086952209472656 -0.786191284656524658 -0.615486621856689453 0.055493626743555069
-2.61753249168395996 4.41596269607543945 5.49700021743774414 -0.185025960206985474 0.651578545570373535 0.735670506954193115
-0.00299976160749793053 4.21047019958496094 2.45834827423095703 0.993278026580810547 -0.00464907335117459297 -0.115660175681114197
-5.39804935455322266 5.49700021743774414 5.49226236343383789 -0.59276735782623291 0.703932344913482666 -0.391287773847579956
-2.28226804733276367 1.26827025413513184 2.71840929985046387 0.641678035259246826 0.532497644424438477 -0.551992416381835938
-2.08053183555603027 1.73917198181152344 3.00750064849853516 0.347882509231567383 -0.110274568200111389 -0.931030213832855225
-1.52704524993896484 2.03882169723510742 2.84905219078063965 -0.455540835857391357 -0.551151394844055176 -0.699081301689147949
-3.09275341033935547 5.49699974060058594 4.68149566650390625 -0.491058140993118286 0.538490056991577148 0.684755682945251465
-4.18366336822509766 5.49700021743774414 3.26472711563110352 -0.97466123104095459 0.223602131009101868 -0.00613278476521372795
-1.66088736057281494 5.49700021743774414 0.519192218780517578 -0.284726232290267944 0.593784809112548828 -0.752562642097473145
-1.99469518661499023 2.59726095199584961 0.0984384417533874512 0.435651183128356934 -0.796384155750274658 0.419500082731246948
-1.29084086418151855 1.63653934001922607 5.49700021743774414 0.187518283724784851 -0.00359446927905082703 0.98225480318069458
-0.844419002532958984 -0.288774013519287109 5.49700021743774414 0.673266351222991943 -0.438104718923568726 0.59563136100769043
-5.49700069427490234 2.07554054260253906 3.91135287284851074 -0.803314745426177979 -0.149472832679748535 0.576492249965667725
-0.275409698486328125 5.49700021743774414 0.87263035774230957 -0.392412513494491577 0.274557322263717651 -0.87785571813583374
-2.28455805778503418 1.18117737770080566 5.49700021743774414 -0.130152285099029541 -0.16614726185798645 0.977474212646484375
-3.35893344879150391 3.41820335388183594 3.64369440078735352 0.0259436499327421188 0.652302265167236328 0.757514774799346924
-1.35347199440002441 2.08807206153869629 2.60102176666259766 -0.721897244453430176 -0.581640541553497314 -0.374911606311798096
-0.320272207260131836 -0.308208942413330078 0.00300000002607703209 -0.490877777338027954 0.792014956474304199 -0.362975656986236572
-1.9623183012008667 1.99204814434051514 2.95944070816040039 0.179532617330551147 -0.450281202793121338 -0.874651312828063965
-2.41605615615844727 1.92476677894592285 2.06892061233520508 0.83328402042388916 -0.322802305221557617 0.448816806077957153
-0.00300023844465613365 4.28754425048828125 1.5023043155670166 0.791497528553009033 0.192476585507392883 0.580072760581970215
-2.05476593971252441 1.62331461906433105 1.69717168807983398 0.0410533249378204346 -0.057031732052564621 0.997527956962585449
-2.00314211845397949 1.64048326015472412 1.68143832683563232 0.420072168111801147 0.0802308768033981323 0.903937160968780518
-0.00300000002607703209 5.46286296844482422 2.52176356315612793 0.278660207986831665 -0.317068338394165039 0.906540751457214355
-1.46716344356536865 2.20201992988586426 2.13934969902038574 -0.591054081916809082 -0.759033560752868652 0.272989273071289062
-2.27404260635375977 1.9224245548248291 2.8371119499206543 0.626918554306030273 -0.357674598693847656 -0.692128598690032959
-1.9071190357208252 2.05037903785705566 2.93225955963134766 0.0995578914880752563 -0.433401197195053101 -0.895685076713562012
-1.96462726593017578 2.10129523277282715 2.88386869430541992 0.169251978397369385 -0.648788928985595703 -0.741907477378845215
-1.93980634212493896 2.05329561233520508 2.92561769485473633 0.126033976674079895 -0.556939244270324707 -0.820934951305389404
-5.49700021743774414 4.31503152847290039 3.24407005310058594 -0.758774459362030029 0.261034309864044189 -0.596759915351867676
-2.04591178894042969 2.19124579429626465 2.76069068908691406 0.19521719217300415 -0.377147287130355835 -0.905345320701599121
-1.84537625312805176 2.34699583053588867 2.47194170951843262 0.0362742021679878235 -0.979999125003814697 -0.195668190717697144
-1.54136645793914795 2.09348773956298828 2.81122803688049316 -0.424360990524291992 -0.614205002784729004 -0.665334463119506836
-1.32935047149658203 5.49700021743774414 1.7972714900970459 0.526971876621246338 0.31192585825920105 -0.790571272373199463
-2.31776309013366699 1.73743522167205811 2.85924124717712402 0.303025007247924805 -0.149244338274002075 -0.941223740577697754
-1.84645652770996094 1.9672013521194458 2.98394417762756348 0.0177315250039100647 -0.451287925243377686 -0.892202258110046387
-1.82647156715393066 1.92002904415130615 3.00459909439086914 -0.010807601734995842 -0.357835292816162109 -0.933722257614135742
-1.88737893104553223 2.32014608383178711 2.57537984848022461 0.0818457901477813721 -0.938311994075775146 -0.335964173078536987
-2.2910606861114502 1.69459712505340576 2.88763642311096191 0.637492120265960693 -0.0559059455990791321 -0.768425881862640381
-0.00299976160749793053 -0.508341312408447266 1.16987800598144531 0.325320571660995483 -0.404535740613937378 -0.854703068733215332
-2.4298551082611084 1.97702884674072266 2.16472768783569336 0.879026472568511963 -0.455382943153381348 -0.141205251216888428
-0.326852321624755859 2.59310579299926758 0.00300000002607703209 0.741729199886322021 0.015820477157831192 -0.670512855052947998
