ply
format ascii 1.0
element vertex 375
property float x
property float y
property float z
property float nx
property float ny
property float nz
end_header
-1.5623013973236084 2.20218396186828613 2.68656706809997559 -0.286301642656326294 -0.757703959941864014 -0.586443662643432617
-2.86021685600280762 4.85027599334716797 0.000300000014249235392 -0.0823960155248641968 0.981160521507263184 -0.174742579460144043
-2.86020398139953613 4.84855508804321289 0.000300000014249235392 -0.392123997211456299 -0.109151832759380341 -0.913413763046264648
-0.520761489868164062 5.49970006942749023 3.32075595855712891 0.266942977905273438 0.922321140766143799 -0.279401183128356934
-5.49970006942749023 3.37040519714355469 4.53141403198242188 -0.954378962516784668 0.256256967782974243 -0.153274714946746826
-5.49970006942749023 0.275170564651489258 5.01628637313842773 -0.980364203453063965 -0.185597419738769531 -0.0666308477520942688
-3.18738102912902832 5.49970006942749023 4.85043239593505859 -0.0907860547304153442 0.992586255073547363 -0.0808098018169403076
-4.37422418594360352 1.01857161521911621 0.000300000014249235392 -0.126456215977668762 -0.131456509232521057 -0.983223259449005127
-5.49970006942749023 2.75197029113769531 2.42116189002990723 -0.912790119647979736 0.017798909917473793 -0.408040791749954224
-0.000300000014249235392 2.38988804817199707 1.74737453460693359 0.91058039665222168 -0.0313928350806236267 -0.412138104438781738
-0.000300000014249235392 2.21177768707275391 2.47473835945129395 0.927245855331420898 -0.139730110764503479 -0.347405493259429932
-5.49970006942749023 1.09680402278900146 1.35379374027252197 -0.923004508018493652 -0.111757203936576843 -0.368202269077301025
-2.77169418334960938 2.9621737003326416 3.3002924919128418 0.879557967185974121 -0.0853115841746330261 -0.468080878257751465
-2.77219748497009277 2.9620659351348877 3.3002924919128418 0.172905474901199341 -0.469228416681289673 -0.865984022617340088
-2.77229762077331543 2.96254992485046387 3.3002924919128418 0.0928559601306915283 0.0344857461750507355 -0.99508213996887207
-0.795977234840393066 5.43964052200317383 5.49970006942749023 0.29621848464012146 -0.101119875907897949 0.949752271175384521
-0.971823573112487793 5.49970006942749023 5.13522624969482422 -0.143347904086112976 0.976567208766937256 0.160523831844329834
-0.971691131591796875 5.49970006942749023 5.13516521453857422 0.282559007406234741 0.95855414867401123 -0.0365274325013160706
-5.49970006942749023 2.40632295608520508 2.65559101104736328 -0.937887907028198242 0.0523492656648159027 -0.342966139316558838
-0.000300000014249235392 2.23839902877807617 3.80730772018432617 0.981321632862091064 -0.183560788631439209 -0.0575601197779178619
-3.70142245292663574 5.49970006942749023 4.4102168083190918 -0.346494555473327637 0.936702132225036621 0.0503049306571483612
-3.70179247856140137 5.49970006942749023 4.41033935546875 -0.844631612300872803 0.413733601570129395 0.339737951755523682
-3.70120954513549805 5.49970006942749023 4.41003799438476562 -0.0957418978214263916 0.978978276252746582 -0.180097252130508423
-0.000300000014249235392 5.46010160446166992 5.06589555740356445 0.929813981056213379 0.36478501558303833 -0.0487638413906097412
-0.000300000014249235392 1.73415517807006836 4.36442661285400391 0.979389548301696777 -0.0286220293492078781 -0.199942097067832947
-5.49970006942749023 2.06951236724853516 3.58089137077331543 -0.969904780387878418 -0.00141475629061460495 -0.24348023533821106
-3.99592137336730957 5.49970006942749023 4.61269092559814453 -0.161651313304901123 0.981983780860900879 -0.0978608950972557068
-0.000300000014249235392 4.51307201385498047 4.65444183349609375 0.931949496269226074 0.336478918790817261 -0.135100081562995911
-5.49970006942749023 0.821534395217895508 4.15361356735229492 -0.948741018772125244 -0.249208375811576843 -0.194385185837745667
-3.52747058868408203 0.484119653701782227 0.000300000014249235392 -0.0757579579949378967 -0.136116087436676025 -0.987792015075683594
-3.32719635963439941 5.49970006942749023 3.5563971996307373 -0.176592916250228882 0.950567960739135742 -0.255412459373474121
-5.49970006942749023 2.81774377822875977 5.20230293273925781 -0.979175567626953125 0.198331952095031738 -0.043352913111448288
-3.41061735153198242 5.49970006942749023 3.53825879096984863 -0.0139855081215500832 0.965432524681091309 -0.260277360677719116
-0.000300000014249235392 0.929954290390014648 2.00137448310852051 0.915719866752624512 -0.114517457783222198 -0.385152965784072876
-5.49970006942749023 2.19249773025512695 2.36852598190307617 -0.925559520721435547 0.0194430947303771973 -0.378102481365203857
-0.000300000014249235392 1.13059473037719727 5.33729267120361328 0.958249449729919434 -0.285414040088653564 -0.0172253623604774475
-5.49970006942749023 4.16707134246826172 4.27017831802368164 -0.935273468494415283 0.28038063645362854 -0.215986534953117371
-0.221758842468261719 5.49970006942749023 4.39960479736328125 0.281258314847946167 0.953622341156005859 -0.107228882610797882
-5.49970006942749023 4.25322151184082031 5.11113834381103516 -0.968556642532348633 0.237899526953697205 -0.0728134065866470337
-5.36101436614990234 5.49970006942749023 5.30913639068603516 -0.247415199875831604 0.968729257583618164 -0.0186883769929409027
-3.77449941635131836 5.49970006942749023 4.84766721725463867 -0.0559737049043178558 0.990604996681213379 0.12477419525384903
-3.77459573745727539 5.49970006942749023 4.84747505187988281 -0.18003508448600769 0.975084125995635986 -0.129608035087585449
-2.23426294326782227 5.49970006942749023 5.29301929473876953 -0.728216826915740967 0.263300180435180664 0.632750570774078369
-2.23345065116882324 5.49970006942749023 5.29228973388671875 -0.0571367628872394562 0.997894048690795898 -0.0307053364813327789
-0.000300000014249235392 1.12462377548217773 0.94811558723449707 0.906242847442626953 -0.0926312729716300964 -0.41248437762260437
-3.70636105537414551 3.83558750152587891 5.49970006942749023 -0.536370456218719482 -0.754372119903564453 0.378457546234130859
-3.70592546463012695 3.83625173568725586 5.49970006942749023 0.034411013126373291 0.215851873159408569 0.975819826126098633
-5.49970006942749023 2.30152320861816406 3.36836910247802734 -0.934609413146972656 0.0336428582668304443 -0.354080945253372192
-4.86354732513427734 5.49970006942749023 5.25727558135986328 -0.546203196048736572 0.76341402530670166 0.344762295484542847
-4.86281585693359375 5.49970006942749023 5.25669574737548828 -0.209349155426025391 0.977582693099975586 -0.0224697086960077286
-5.49970006942749023 4.01597833633422852 4.46527862548828125 -0.969794511795043945 0.174666404724121094 -0.17026481032371521
-5.49970006942749023 2.06595110893249512 4.28714227676391602 -0.959526181221008301 -0.161451667547225952 -0.230743929743766785
-2.12013626098632812 4.13040399551391602 0.000300000014249235392 0.0566627420485019684 0.202167659997940063 -0.977710306644439697
-0.000300000014249235392 5.05107498168945312 3.5265495777130127 0.911760628223419189 0.348958253860473633 -0.216611728072166443
-5.49970006942749023 -0.284610748291015625 4.80383205413818359 -0.952544808387756348 -0.288221478462219238 -0.0979118868708610535
-3.05793571472167969 5.49970006942749023 4.82736682891845703 0.264395177364349365 0.868391692638397217 -0.419512808322906494
-3.05818605422973633 5.49970006942749023 4.8277125358581543 0.00890093483030796051 0.99639892578125 -0.0843195840716362
-5.49970006942749023 0.386453866958618164 4.39141941070556641 -0.941393554210662842 -0.308971166610717773 -0.135333001613616943
-5.49970006942749023 3.19144344329833984 4.67963933944702148 -0.977340638637542725 0.171669811010360718 -0.123833462595939636
-2.39045906066894531 5.49970006942749023 0.850238204002380371 -0.370795398950576782 0.906359672546386719 0.202541142702102661
-2.39032816886901855 5.49970006942749023 0.850055694580078125 0.0255070608109235764 0.932904481887817383 -0.359219282865524292
-5.49970006942749023 2.84493589401245117 3.76611089706420898 -0.975768089294433594 0.0249957405030727386 -0.217374503612518311
-5.47789382934570312 5.43697738647460938 5.49970006942749023 0.0360472351312637329 -0.987461268901824951 0.153690904378890991
-5.47824192047119141 5.43889713287353516 5.49970006942749023 -0.679130196571350098 -0.0188112556934356689 0.733776688575744629
-3.28315448760986328 5.49970006942749023 5.11684131622314453 -0.052271675318479538 0.996873438358306885 -0.0592533797025680542
-1.85583651065826416 5.49970006942749023 4.77398777008056641 0.22718164324760437 0.967192292213439941 -0.113698787987232208
-5.49970006942749023 3.58376216888427734 3.22575139999389648 -0.924443364143371582 0.231104657053947449 -0.303306788206100464
-0.000300000014249235392 1.24280893802642822 3.41490697860717773 0.947007417678833008 -0.215363875031471252 -0.238317504525184631
-0.768987655639648438 5.49970006942749023 3.97395014762878418 0.282507508993148804 0.94266355037689209 -0.177693381905555725
-2.11889457702636719 1.88494491577148438 2.95379471778869629 0.383668661117553711 -0.239840611815452576 -0.891781806945800781
-1.58849895000457764 0.427583932876586914 0.000300000014249235392 0.149553805589675903 -0.129303261637687683 -0.980262398719787598
-5.49970006942749023 4.53372859954833984 3.18675613403320312 -0.914623737335205078 0.310697942972183228 -0.258708715438842773
-0.000300000014249235392 0.600414752960205078 1.23354244232177734 0.910019278526306152 -0.225055113434791565 -0.348159670829772949
-0.000300000014249235392 4.16588640213012695 5.29085540771484375 0.986123442649841309 0.164513900876045227 -0.0222632754594087601
-2.16575193405151367 5.49970006942749023 5.25238609313964844 0.111650280654430389 0.992347121238708496 0.0527394488453865051
-2.16570615768432617 5.49970006942749023 5.25232648849487305 0.171079635620117188 0.984898805618286133 -0.0265712998807430267
-0.000300000014249235392 2.591400146484375 5.18421363830566406 0.988049447536468506 -0.143587455153465271 -0.0560440905392169952
-2.60336852073669434 5.49970006942749023 4.04221439361572266 0.0454113110899925232 0.970613718032836914 -0.236319079995155334
-0.000300000014249235392 2.73756575584411621 4.76329994201660156 0.991325497627258301 0.0390046723186969757 -0.125508561730384827
-2.4510650634765625 2.9315040111541748 0.000300000014249235392 0.227742090821266174 -0.650014042854309082 -0.724993288516998291
-2.45294475555419922 2.93758273124694824 0.000300000014249235392 0.380540281534194946 0.636797726154327393 -0.670580089092254639
-2.45312786102294922 2.93729496002197266 0.000300000014249235392 -0.0425958074629306793 -0.00926719419658184052 -0.99904930591583252
-0.000300000014249235392 3.49271082878112793 3.78505229949951172 0.965137898921966553 0.17120794951915741 -0.197981253266334534
-4.27819013595581055 2.71949148178100586 3.3002924919128418 -0.749135017395019531 0.440286755561828613 -0.494918465614318848
-4.27796268463134766 2.71932506561279297 3.3002924919128418 -0.581674814224243164 0.257916033267974854 -0.771449089050292969
-0.000300000014249235392 1.93730509281158447 4.27354240417480469 0.969015359878540039 -0.0843376442790031433 -0.23215581476688385
-5.49970006942749023 -0.188167572021484375 5.08086633682250977 -0.950757145881652832 -0.30705222487449646 -0.0421861894428730011
-0.000300000014249235392 5.4823455810546875 5.1179347038269043 0.95688396692276001 0.286563992500305176 -0.0474773980677127838
-5.49970006942749023 1.78610646724700928 4.16382169723510742 -0.955092668533325195 -0.203528314828872681 -0.215346738696098328
-0.000300000014249235392 2.44974160194396973 4.05762338638305664 0.966348648071289062 0.00909329019486904144 -0.257075130939483643
-0.000300000014249235392 3.67839813232421875 2.91978311538696289 0.918223679065704346 0.157533526420593262 -0.36338469386100769
-1.4671630859375 5.49970006942749023 1.54641604423522949 0.0427229404449462891 0.917330682277679443 -0.395827233791351318
-0.000300000014249235392 3.96964836120605469 4.5704498291015625 0.971777915954589844 0.163211777806282043 -0.170322179794311523
-0.000300000014249235392 2.79300475120544434 5.13439464569091797 0.996653914451599121 0.0628803074359893799 -0.0522195808589458466
-2.47453069686889648 2.48331737518310547 1.50150752067565918 0.61968463659286499 -0.228987768292427063 -0.750703334808349609
-3.26382708549499512 2.77501177787780762 2.4579002857208252 -0.217543125152587891 0.867845356464385986 -0.446675956249237061
-5.49970006942749023 4.18675947189331055 4.84885787963867188 -0.960839629173278809 0.258635967969894409 -0.0994719117879867554
-3.5781102180480957 2.82426261901855469 3.3002924919128418 -0.445083588361740112 -0.6773110032081604 -0.585790455341339111
-3.57788324356079102 2.8245394229888916 3.3002924919128418 -0.00197110162116587162 -0.226316183805465698 -0.974051892757415771
-1.78754806518554688 5.20777606964111328 0.000300000014249235392 0.0740966126322746277 0.240911111235618591 -0.967714548110961914
-5.49970006942749023 0.365617752075195312 5.05947399139404297 -0.968170285224914551 -0.242749020457267761 -0.0609841756522655487
-5.49970006942749023 1.84527277946472168 4.58371067047119141 -0.99073481559753418 0.00678555620834231377 -0.135641083121299744
-0.000300000014249235392 2.0918276309967041 1.57571017742156982 0.925390005111694336 -0.0293510239571332932 -0.377878010272979736
-2.79332232475280762 5.49970006942749023 4.34853124618530273 -0.135681122541427612 0.977256894111633301 -0.162970989942550659
-0.000300000014249235392 2.35204792022705078 1.82099676132202148 0.90918421745300293 0.00755239976570010185 -0.416325539350509644
-0.000300000014249235392 3.43712973594665527 3.06143736839294434 0.955534815788269043 0.0897216424345970154 -0.280897021293640137
-5.49970006942749023 0.0936176776885986328 3.14657306671142578 -0.914712667465209961 -0.277904510498046875 -0.293376505374908447
-5.49970006942749023 5.44766950607299805 5.15076732635498047 -0.990957379341125488 -0.0552307330071926117 0.122282207012176514
-4.86270666122436523 5.49970006942749023 5.03530645370483398 0.69271087646484375 0.571942925453186035 -0.439355134963989258
-4.86316490173339844 5.49970006942749023 5.03551483154296875 -0.300285220146179199 0.951360225677490234 -0.0688661187887191772
-4.29973220825195312 5.49970006942749023 2.57542133331298828 -0.187347471714019775 0.939769089221954346 -0.285893142223358154
-5.49970006942749023 1.97331035137176514 3.81277346611022949 -0.968593358993530273 -0.00809589959681034088 -0.248518049716949463
-0.000300000014249235392 2.09562087059020996 4.91730594635009766 0.994896054267883301 0.0240040477365255356 -0.0980080887675285339
-0.000300000014249235392 4.42092132568359375 1.85215175151824951 0.911939084529876709 0.166380912065505981 -0.375079125165939331
-1.07490360736846924 5.49970006942749023 5.25327205657958984 0.277171581983566284 0.960405468940734863 -0.0282325781881809235
-0.000300000014249235392 5.37378740310668945 5.04903411865234375 0.794927537441253662 -0.306224912405014038 -0.523752272129058838
-0.326757907867431641 5.49970006942749023 5.26437854766845703 0.310943812131881714 0.949863314628601074 -0.0327656976878643036
-0.43168330192565918 5.49970006942749023 5.28763294219970703 0.358543038368225098 0.933115839958190918 -0.0272313617169857025
-0.000300000014249235392 3.53540706634521484 3.53958654403686523 0.962840437889099121 0.0446061193943023682 -0.266361743211746216
-0.000300000014249235392 2.88047552108764648 2.22904539108276367 0.927453339099884033 0.0228678137063980103 -0.373238921165466309
-0.000300000014249235392 2.60607004165649414 3.05262279510498047 0.939983785152435303 0.0170702431350946426 -0.340791761875152588
-0.000300000014249235392 1.9982527494430542 3.13332915306091309 0.929235577583312988 -0.0594055615365505219 -0.364680767059326172
-3.49537777900695801 3.78885412216186523 3.3002922534942627 -0.212204501032829285 0.229353010654449463 -0.949929714202880859
-1.86125540733337402 5.49970006942749023 3.79325437545776367 0.151371702551841736 0.971085846424102783 -0.1846047043800354
-0.045684814453125 5.49970006942749023 5.08985280990600586 -0.0865745022892951965 0.876426637172698975 -0.473688989877700806
-0.0455653667449951172 5.49970006942749023 5.09000015258789062 0.287066251039505005 0.956785678863525391 -0.0464110001921653748
-0.000300000014249235392 2.05069375038146973 4.17928981781005859 0.76554948091506958 0.145567923784255981 0.626693129539489746
-5.14861965179443359 5.49970006942749023 4.94064140319824219 -0.254546552896499634 0.963845252990722656 -0.0787923410534858704
-2.31213617324829102 5.49970006942749023 4.53490638732910156 0.00788806192576885223 0.983254313468933105 -0.182067766785621643
-0.000300000014249235392 3.73808884620666504 3.46576333045959473 0.962276458740234375 0.0522054843604564667 -0.267017781734466553
-5.49970006942749023 1.09681820869445801 5.17087745666503906 -0.989681363105773926 -0.134231507778167725 -0.0501268953084945679
-0.0731508731842041016 2.75052285194396973 0.000300000014249235392 0.170817539095878601 0.0585351213812828064 -0.983562350273132324
-2.17744874954223633 0.0137107372283935547 0.000300000014249235392 0.114186607301235199 -0.182848110795021057 -0.976487517356872559
-0.000300000014249235392 0.27295994758605957 5.14495944976806641 0.952355742454528809 -0.300987958908081055 -0.0492413565516471863
-5.49970006942749023 2.96697306632995605 4.74387884140014648 -0.991811573505401611 0.0620039887726306915 -0.111647762358188629
-5.49970006942749023 3.83325624465942383 0.0170569419860839844 -0.822231411933898926 -0.204911306500434875 -0.530986666679382324
-2.33270692825317383 5.49970006942749023 4.33515119552612305 0.0622442029416561127 0.975864946842193604 -0.20931600034236908
-0.000300000014249235392 2.35227203369140625 4.47868156433105469 0.972681879997253418 -0.0891315340995788574 -0.214349269866943359
-0.000300000014249235392 0.562329292297363281 2.58565092086791992 0.91064530611038208 -0.278753131628036499 -0.304994672536849976
-5.49970006942749023 0.403100490570068359 5.18068599700927734 -0.947332143783569336 -0.316203325986862183 -0.0507661253213882446
-3.49425935745239258 2.91228485107421875 3.3002924919128418 -0.379538059234619141 -0.191263929009437561 -0.905189990997314453
-3.49393582344055176 2.9124138355255127 3.3002924919128418 -0.0156836546957492828 -0.0538449957966804504 -0.998426079750061035
-0.000300000014249235392 -0.02454376220703125 4.7338719367980957 0.925470948219299316 -0.366096854209899902 -0.0973473340272903442
-5.49970006942749023 -0.284837484359741211 4.4428257942199707 -0.92356419563293457 -0.361480265855789185 -0.127910524606704712
-5.49970006942749023 1.93620514869689941 5.29032707214355469 -0.990395545959472656 -0.135446324944496155 -0.0277659017592668533
-1.27823388576507568 5.49970006942749023 2.41161751747131348 0.211747825145721436 0.925748944282531738 -0.313291698694229126
-0.000300000014249235392 2.95462989807128906 4.73083686828613281 0.97683405876159668 0.171463608741760254 -0.128044053912162781
-2.290435791015625 5.49970006942749023 2.37845206260681152 0.0734187066555023193 0.939817667007446289 -0.333695143461227417
-5.49970006942749023 -0.0287134647369384766 1.67758870124816895 -0.91934734582901001 -0.203314140439033508 -0.336843699216842651
-0.931474089622497559 3.36345577239990234 0.000300000014249235392 0.148086830973625183 0.029532305896282196 -0.988533258438110352
-4.96248531341552734 5.35648441314697266 5.49970006942749023 -0.625750422477722168 -0.124929435551166534 0.76995396614074707
-4.24532222747802734 5.49970006942749023 5.20013713836669922 -0.230852857232093811 0.972054958343505859 -0.0426148064434528351
-4.73045063018798828 0.805518984794616699 0.000300000014249235392 -0.121695667505264282 -0.106236390769481659 -0.986865639686584473
-5.49970006942749023 3.51894783973693848 3.52789545059204102 -0.948530375957489014 0.186324760317802429 -0.256072431802749634
-3.48640632629394531 5.49970006942749023 2.89029264450073242 -0.0735198706388473511 0.930482208728790283 -0.358883887529373169
-5.49970006942749023 0.413954973220825195 5.1385340690612793 -0.908115744590759277 -0.199763372540473938 0.367995172739028931
-3.01075935363769531 -0.0254018306732177734 0.000300000014249235392 -0.134011700749397278 -0.322798013687133789 -0.93693232536315918
-3.71878957748413086 5.49970006942749023 2.85891437530517578 -0.083309173583984375 0.95620262622833252 -0.280599504709243774
-2.78154373168945312 3.22994852066040039 3.3002924919128418 0.660959124565124512 0.686073899269104004 -0.304032176733016968
-2.78222513198852539 3.22933769226074219 3.3002924919128418 -0.0930096805095672607 0.215034455060958862 -0.972167313098907471
-3.52627229690551758 3.57651185989379883 3.3002922534942627 -0.715629518032073975 0.641334116458892822 -0.276703834533691406
-3.52568578720092773 3.57579898834228516 3.3002922534942627 -0.533668875694274902 -0.0487276650965213776 -0.844288468360900879
-3.52519392967224121 3.57571077346801758 3.3002922534942627 0.0774485841393470764 -0.669020235538482666 -0.739197909832000732
-3.52528882026672363 3.57606768608093262 3.3002922534942627 -0.199067696928977966 0.267304658889770508 -0.942825675010681152
-3.48577880859375 2.2930605411529541 0.000300000014249235392 -0.0519633106887340546 -0.0176725089550018311 -0.998492598533630371
-0.0201098918914794922 5.49970006942749023 4.67602109909057617 0.371126800775527954 0.92348027229309082 -0.0972060337662696838
-4.88125133514404297 5.49970006942749023 3.1691434383392334 -0.28306308388710022 0.927820801734924316 -0.242948263883590698
-1.83347237110137939 2.25443601608276367 1.65029633045196533 0.179984211921691895 -0.0673825815320014954 -0.981358885765075684
-5.49970006942749023 3.44308900833129883 5.45674037933349609 -0.981397509574890137 0.1919756680727005 -0.00205275742337107658
-5.49970006942749023 2.98102164268493652 4.29987621307373047 -0.973722636699676514 -0.0659278035163879395 -0.21798570454120636
-5.49970006942749023 0.793319940567016602 5.21616077423095703 -0.983275294303894043 -0.179593116044998169 -0.0302648246288299561
-0.000300000014249235392 3.71883893013000488 5.36254501342773438 0.979469537734985352 0.200253486633300781 -0.0231940634548664093
-5.49970006942749023 4.42762327194213867 4.28852653503417969 -0.956696867942810059 0.203870043158531189 -0.207769244909286499
-5.49970006942749023 2.87110161781311035 3.18226194381713867 -0.9436531662940979 0.0150961112231016159 -0.330591589212417603
-0.000300000014249235392 0.722002983093261719 4.76123762130737305 0.946448683738708496 -0.308695405721664429 -0.0945621803402900696
-4.07035732269287109 0.428628206253051758 0.000300000014249235392 -0.593788981437683105 -0.26972469687461853 -0.758065402507781982
-4.07013225555419922 0.428674697875976562 0.000300000014249235392 -0.0326010100543498993 -0.197131335735321045 -0.979834854602813721
-5.49970006942749023 0.920692324638366699 2.70698881149291992 -0.927631855010986328 -0.124559633433818817 -0.352113604545593262
-4.24984169006347656 5.49970006942749023 4.63582515716552734 -0.236846357583999634 0.967334389686584473 -0.0903759300708770752
-3.3336334228515625 5.49970006942749023 2.42531967163085938 -0.125767916440963745 0.920129656791687012 -0.370868921279907227
-3.25093555450439453 3.75093984603881836 3.3002922534942627 -0.0310482364147901535 0.287141233682632446 -0.957384943962097168
-5.49970006942749023 2.84245061874389648 5.22346305847167969 -0.998052477836608887 0.0376100987195968628 -0.0497660301625728607
-1.39055001735687256 4.27814674377441406 0.000300000014249235392 0.121448598802089691 0.198405370116233826 -0.972566485404968262
-0.000300000014249235392 2.68783688545227051 3.76802158355712891 0.963145673274993896 -0.0849226117134094238 -0.255222558975219727
-4.2301483154296875 1.29035651683807373 0.000300000014249235392 -0.124425999820232391 -0.150087162852287292 -0.980811893939971924
-5.49970006942749023 1.77651023864746094 3.87227630615234375 -0.956528663635253906 -0.143428891897201538 -0.25393107533454895
-2.49502682685852051 1.55759584903717041 2.55493855476379395 0.911850512027740479 0.105989813804626465 -0.396604180335998535
-0.000300000014249235392 1.74053454399108887 2.30600976943969727 0.916637897491455078 -0.0623952001333236694 -0.394818633794784546
-0.000300000014249235392 0.259761571884155273 0.272541522979736328 0.898795008659362793 -0.147258132696151733 -0.412895321846008301
-0.000300000014249235392 3.24209928512573242 5.02153205871582031 0.983774900436401367 0.153479963541030884 -0.0929017961025238037
-5.49970006942749023 5.37899684906005859 4.0113372802734375 -0.847024202346801758 -0.0822231248021125793 -0.52515643835067749
-4.85526847839355469 5.49970006942749023 4.78218460083007812 -0.200183629989624023 0.974018394947052002 -0.105899438261985779
-3.53127741813659668 2.87303543090820312 3.3002924919128418 -0.176000520586967468 -0.0129609499126672745 -0.98430478572845459
-3.3562309741973877 0.245567798614501953 0.000300000014249235392 -0.0320850089192390442 -0.142840996384620667 -0.989225447177886963
-2.52717471122741699 5.49970006942749023 0.129368782043457031 0.74405592679977417 0.66769641637802124 0.0237107947468757629
-2.52749800682067871 5.49970006942749023 0.129220724105834961 0.0334238894283771515 0.908749580383300781 -0.416001081466674805
-5.49970006942749023 1.75311398506164551 5.15300941467285156 -0.992969989776611328 -0.093842141330242157 -0.0721392259001731873
-0.000300000014249235392 0.981492280960083008 5.10332012176513672 0.97966313362121582 -0.190641298890113831 -0.062578245997428894
-4.32981443405151367 5.10520696640014648 0.000300000014249235392 0.11909901350736618 -0.0800554677844047546 -0.989649653434753418
-4.91686248779296875 5.49970006942749023 3.32364010810852051 -0.194817706942558289 0.944735586643218994 -0.263667672872543335
-0.000300000014249235392 1.24724102020263672 2.14740991592407227 0.935172080993652344 -0.0797646790742874146 -0.345095157623291016
-5.49970006942749023 0.905296683311462402 3.39959359169006348 -0.936851620674133301 -0.15292946994304657 -0.314517855644226074
-0.14100193977355957 5.49970006942749023 3.99417304992675781 0.271497666835784912 0.943394303321838379 -0.190515398979187012
-5.49970006942749023 3.37784957885742188 5.14316368103027344 -0.98534083366394043 0.161277532577514648 -0.0556127950549125671
-2.12034773826599121 3.07011818885803223 5.49970006942749023 0.520503103733062744 -0.136111944913864136 0.842941164970397949
-3.51834344863891602 3.75488996505737305 3.3002922534942627 -0.25663989782333374 0.339922159910202026 -0.904758989810943604
-5.49970006942749023 -0.879334926605224609 2.28551697731018066 -0.896402716636657715 -0.342269033193588257 -0.281627476215362549
-0.000300000014249235392 -0.655657052993774414 4.799285888671875 0.950516462326049805 -0.300337016582489014 -0.0794735699892044067
-0.000300000014249235392 2.5719141960144043 1.50947511196136475 0.918759822845458984 0.00829041562974452972 -0.394729763269424438
-3.37875676155090332 3.79313516616821289 3.3002922534942627 0.814568817615509033 -0.469902843236923218 -0.340101331472396851
-3.37952589988708496 3.79360556602478027 3.3002922534942627 -0.162296190857887268 0.180462568998336792 -0.970099568367004395
-5.49970006942749023 -0.802846431732177734 0.703494071960449219 -0.91425931453704834 -0.198310971260070801 -0.353274077177047729
-0.000300000014249235392 1.57347786426544189 2.28182435035705566 0.923985183238983154 -0.136491358280181885 -0.357241332530975342
-0.000300000014249235392 2.20153141021728516 5.32196235656738281 0.988398313522338867 -0.148823797702789307 -0.0303341634571552277
-0.000300000014249235392 1.70511901378631592 4.07288122177124023 0.968937993049621582 -0.134333983063697815 -0.207638069987297058
-0.000300000014249235392 -0.173832893371582031 0.179337024688720703 0.905983030796051025 -0.153451189398765564 -0.394521772861480713
-4.27756214141845703 2.93753671646118164 3.3002924919128418 -0.120394028723239899 0.156493842601776123 -0.980313658714294434
-0.000300000014249235392 2.45104479789733887 4.24980449676513672 0.97111743688583374 -0.0416422560811042786 -0.234939917922019958
-0.000300000014249235392 2.61874485015869141 4.48087787628173828 0.97549748420715332 -0.0770863518118858337 -0.206063538789749146
-5.49970006942749023 5.31104564666748047 2.59763884544372559 -0.96782982349395752 -0.0806286633014678955 -0.238336876034736633
-3.23549246788024902 5.49970006942749023 3.15519905090332031 -0.0354669429361820221 0.950001418590545654 -0.310224622488021851
-3.35155677795410156 5.49970006942749023 4.92907142639160156 -0.191577494144439697 0.978879809379577637 -0.071359686553478241
-1.79515981674194336 5.49970006942749023 3.36026859283447266 0.624901413917541504 0.706120431423187256 -0.333004653453826904
-1.79539906978607178 5.49970006942749023 3.36030817031860352 0.0821729302406311035 0.943601369857788086 -0.320724070072174072
-3.40135788917541504 3.66672658920288086 3.3002922534942627 0.29749375581741333 0.4730568528175354 -0.829285681247711182
-4.69833850860595703 3.54578185081481934 5.49970006942749023 -0.442493438720703125 0.0901930853724479675 0.892224609851837158
-0.000300000014249235392 2.82202005386352539 4.27546358108520508 0.98766171932220459 0.0305621102452278137 -0.153591275215148926
-2.32042527198791504 2.61432409286499023 1.65029633045196533 0.976061761379241943 0.0761489123106002808 -0.203727170825004578
-2.32182049751281738 2.61419987678527832 1.65029633045196533 0.138375580310821533 -0.0405198782682418823 -0.989550471305847168
-5.49970006942749023 2.76563835144042969 4.97086620330810547 -0.951609134674072266 -0.176661193370819092 0.251457512378692627
-5.49970006942749023 0.723156929016113281 4.83176231384277344 -0.982351541519165039 -0.152527078986167908 -0.108263187110424042
-2.75765013694763184 3.27701234817504883 3.3002924919128418 0.286848247051239014 0.25776103138923645 -0.922646939754486084
-2.75749945640563965 3.27698302268981934 3.3002924919128418 0.624635875225067139 0.139807015657424927 -0.768299460411071777
-2.75428128242492676 3.27912735939025879 3.3002924919128418 0.86759418249130249 0.493332654237747192 -0.0624759681522846222
-2.75843262672424316 3.27675175666809082 3.3002924919128418 0.0558568499982357025 -0.0183409284800291061 -0.998270273208618164
-1.72377634048461914 5.49970006942749023 3.32285022735595703 -0.22984488308429718 0.863747119903564453 0.448455333709716797
-1.72344124317169189 5.49970006942749023 3.32217717170715332 0.135003447532653809 0.948248028755187988 -0.287401437759399414
-0.000300000014249235392 -0.139862537384033203 4.13215827941894531 0.958977043628692627 -0.246695160865783691 -0.139658167958259583
-5.49970006942749023 0.86552584171295166 4.41684436798095703 -0.94514840841293335 -0.288559883832931519 -0.15306071937084198
-0.000300000014249235392 3.38604187965393066 4.17122316360473633 0.971741139888763428 0.146130472421646118 -0.185378000140190125
-2.04329705238342285 1.99287629127502441 2.93375301361083984 0.315714329481124878 -0.477148056030273438 -0.820154964923858643
-5.49970006942749023 2.95371580123901367 5.12052345275878906 -0.99724346399307251 -0.0273799598217010498 -0.0689616501331329346
-0.00731444358825683594 5.49970006942749023 1.82602393627166748 0.190491005778312683 0.931838035583496094 -0.30885431170463562
-5.13091897964477539 1.90391135215759277 0.000300000014249235392 -0.154843315482139587 -0.0799907073378562927 -0.984695374965667725
-2.04756665229797363 3.61689329147338867 0.000300000014249235392 0.026966949924826622 0.126538991928100586 -0.991594970226287842
-2.91943049430847168 5.49970006942749023 3.41701483726501465 -0.0561100654304027557 0.956658124923706055 -0.285756558179855347
-0.000300000014249235392 4.00840950012207031 3.47143435478210449 0.966126143932342529 0.110146470367908478 -0.233383923768997192
-2.49573898315429688 3.93388128280639648 0.000300000014249235392 0.0222180094569921494 0.117810912430286407 -0.992787420749664307
-1.06756985187530518 2.17271900177001953 1.65029633045196533 -0.333817064762115479 -0.583864450454711914 -0.740046203136444092
-1.06718635559082031 2.17361688613891602 1.65029633045196533 -0.621847271919250488 -0.665541887283325195 -0.412746846675872803
-1.06670355796813965 2.17409992218017578 1.65029633045196533 0.102272093296051025 -0.00255555659532546997 -0.994753181934356689
-5.49970006942749023 3.0267031192779541 3.78471899032592773 -0.976936459541320801 0.065097421407699585 -0.203365027904510498
-0.000300000014249235392 0.00751018524169921875 4.03116130828857422 0.948652565479278564 -0.280475348234176636 -0.146259322762489319
-1.47848844528198242 5.49970006942749023 3.52312040328979492 0.151020437479019165 0.965526461601257324 -0.21201750636100769
-0.000300000014249235392 3.14381074905395508 4.65875625610351562 0.993289470672607422 0.015803210437297821 -0.114569202065467834
-2.98353099822998047 3.61923480033874512 3.3002922534942627 -0.322826772928237915 0.369657933712005615 -0.871284067630767822
-2.98336005210876465 3.61894416809082031 3.3002922534942627 -0.184402540326118469 0.0863080024719238281 -0.979053974151611328
-3.97600769996643066 5.49970006942749023 4.71338272094726562 -0.425245285034179688 0.811721205711364746 0.400343745946884155
-5.49970006942749023 5.27398109436035156 2.64316964149475098 -0.590777814388275146 -0.087474428117275238 -0.802078425884246826
-3.97559380531311035 5.49970006942749023 4.7128148078918457 -0.120429381728172302 0.985015392303466797 -0.123455703258514404
-0.000300000014249235392 1.95979189872741699 4.75106430053710938 0.992149770259857178 0.0218784231692552567 -0.123126320540904999
-0.000300000014249235392 1.4786384105682373 4.51772975921630859 0.987938165664672852 -0.101999878883361816 -0.116508573293685913
-5.49970006942749023 3.89176225662231445 2.47565078735351562 -0.927435636520385742 0.201639279723167419 -0.314967721700668335
-0.000300000014249235392 4.45154190063476562 5.19221162796020508 0.966210603713989258 0.255913853645324707 -0.0307418312877416611
-2.51008510589599609 3.54004192352294922 0.000300000014249235392 0.373651653528213501 -0.513991415500640869 -0.772138118743896484
-2.51065564155578613 3.54086613655090332 0.000300000014249235392 -0.010322868824005127 0.0676880702376365662 -0.997653067111968994
-1.61362779140472412 1.92591738700866699 2.95622992515563965 -0.199455380439758301 -0.389037013053894043 -0.899370789527893066
-2.73384523391723633 2.93941712379455566 2.99767303466796875 -0.401687502861022949 0.666639626026153564 -0.627884268760681152
-2.73360228538513184 2.93949246406555176 2.99839162826538086 -0.346440166234970093 0.827447235584259033 -0.441939234733581543
-2.53729534149169922 5.49970006942749023 2.20484232902526855 0.0284578204154968262 0.937142014503479004 -0.347785800695419312
-0.760147929191589355 4.78968048095703125 0.000300000014249235392 -0.538203418254852295 0.751808583736419678 -0.380947262048721313
-0.75966036319732666 4.78914308547973633 0.000300000014249235392 0.205038875341415405 0.174554616212844849 -0.963062644004821777
-0.000300000014249235392 1.91885089874267578 2.24653387069702148 0.939571380615234375 -0.0202760212123394012 -0.341751992702484131
-3.32950115203857422 5.49970006942749023 4.38689041137695312 -0.249559313058853149 0.946309506893157959 0.205471307039260864
-3.32932305335998535 5.49970006942749023 4.38670253753662109 0.292253017425537109 0.885191082954406738 -0.361973464488983154
-3.32974863052368164 5.49970006942749023 4.38691043853759766 -0.198165446519851685 0.966385364532470703 -0.163798034191131592
-0.000300000014249235392 4.06485795974731445 5.33393287658691406 0.988819718360900879 0.147729068994522095 -0.0202897172421216965
-2.44417572021484375 2.57402920722961426 1.65029633045196533 0.296649038791656494 0.393238157033920288 -0.870266079902648926
-2.44415783882141113 2.57365965843200684 1.65029633045196533 0.30065995454788208 -0.58670419454574585 -0.751918673515319824
-2.44466590881347656 2.5747373104095459 1.65029633045196533 0.0772405639290809631 -0.0344424471259117126 -0.996417343616485596
-3.68305206298828125 3.17709684371948242 3.3002922534942627 -0.254367619752883911 0.0489754751324653625 -0.965866684913635254
-0.000300000014249235392 4.09671878814697266 5.14854717254638672 0.962811887264251709 0.263947218656539917 -0.0576636120676994324
-0.000300000014249235392 1.78108620643615723 3.99798226356506348 0.974333763122558594 -0.0927487388253211975 -0.205112800002098083
-2.65916705131530762 5.49970006942749023 4.46087551116943359 0.120991170406341553 0.974590599536895752 -0.188505306839942932
-0.408725738525390625 -0.559324979782104492 0.000300000014249235392 0.150407493114471436 -0.189238667488098145 -0.970343351364135742
-5.49970006942749023 -0.418241024017333984 3.22240424156188965 -0.911973536014556885 -0.348422139883041382 -0.216578572988510132
-2.36290264129638672 5.49970006942749023 4.9440765380859375 -0.0676483660936355591 0.992695093154907227 -0.0998999997973442078
-5.49970006942749023 3.96812772750854492 3.30647706985473633 -0.920901179313659668 0.274754136800765991 -0.276498109102249146
-0.000300000014249235392 2.20259284973144531 4.50958490371704102 0.991908848285675049 0.0256575234234333038 -0.124332278966903687
-4.43767738342285156 3.17866945266723633 3.3002922534942627 0.220610871911048889 0.418007612228393555 -0.881249427795410156
-4.43781089782714844 3.1785738468170166 3.3002922534942627 -0.190516248345375061 0.151262044906616211 -0.969960451126098633
-0.000300000014249235392 2.46495842933654785 3.97893953323364258 0.965111255645751953 0.0806223005056381226 -0.249118834733963013
-3.22630715370178223 5.49970006942749023 5.03104352951049805 0.000536956766154617071 0.996204376220703125 -0.0870428532361984253
-0.000300000014249235392 1.20064783096313477 3.1492619514465332 0.946671247482299805 -0.115892238914966583 -0.300636738538742065
-0.000300000014249235392 4.39976930618286133 2.89640688896179199 0.916570544242858887 0.27541351318359375 -0.289906620979309082
-0.000300000014249235392 4.10467529296875 4.86747264862060547 0.966852843761444092 0.242369711399078369 -0.0803273990750312805
-0.000300000014249235392 -0.319920063018798828 3.87422847747802734 0.921401560306549072 -0.333752721548080444 -0.19906829297542572
-5.49970006942749023 1.30135512351989746 5.44565248489379883 -0.960286974906921387 -0.278998702764511108 -0.00293199089355766773
-2.58679389953613281 5.49970006942749023 5.04162216186523438 -0.00964137539267539978 0.998292326927185059 -0.0576151832938194275
-0.000300000014249235392 3.55859756469726562 0.0962412357330322266 0.884448707103729248 0.42673259973526001 0.188811257481575012
-0.000300000014249235392 3.36108732223510742 0.000205516815185546875 0.997203826904296875 0.0747289583086967468 -0.000365586514817550778
-0.257727146148681641 3.34177446365356445 0.000300000014249235392 0.179158493876457214 0.0162576828151941299 -0.983685851097106934
-4.79715394973754883 5.49970006942749023 3.22215437889099121 -0.176036611199378967 0.94665837287902832 -0.269905328750610352
-5.49970006942749023 1.85266637802124023 1.45145726203918457 -0.921445369720458984 -0.0975309014320373535 -0.376066714525222778
-5.49970006942749023 5.33471393585205078 4.67973709106445312 -0.961900711059570312 -0.0575145743787288666 -0.267280906438827515
-3.68400907516479492 5.49970006942749023 5.44645500183105469 -0.0791425332427024841 0.996854603290557861 -0.00415806611999869347
-2.67171168327331543 2.95869112014770508 1.73221170902252197 -0.186504989862442017 0.864127695560455322 -0.467438936233520508
-0.000300000014249235392 1.80018222332000732 5.32455015182495117 0.997250676155090332 -0.0661287456750869751 -0.0334361009299755096
-1.02772891521453857 5.49970006942749023 4.31448602676391602 0.247968867421150208 0.960608363151550293 -0.125471189618110657
-2.81223583221435547 5.49970006942749023 3.8428199291229248 0.107907265424728394 0.95950770378112793 -0.260194122791290283
-0.000300000014249235392 2.55655908584594727 5.37272167205810547 0.997995376586914062 0.0602141432464122772 -0.0194751322269439697
-0.000300000014249235392 4.69039678573608398 2.79342389106750488 0.90826416015625 0.252634942531585693 -0.333514213562011719
-0.000300000014249235392 3.86878538131713867 2.65870141983032227 0.96202540397644043 0.107072010636329651 -0.251082897186279297
-0.000300000014249235392 0.81740880012512207 4.27524375915527344 0.975995302200317383 -0.152243882417678833 -0.155740261077880859
-0.000300000014249235392 -0.410240888595581055 4.01791524887084961 0.916814506053924561 -0.373602747917175293 -0.140968412160873413
-5.49970006942749023 1.87293362617492676 3.179168701171875 -0.959715604782104492 -0.0883173197507858276 -0.266731888055801392
-3.78561162948608398 2.61314916610717773 0.548819661140441895 -0.330787360668182373 0.819914698600769043 -0.467246890068054199
-1.08961141109466553 5.49970006942749023 2.49062228202819824 0.2614155113697052 0.748909115791320801 -0.608931064605712891
-1.08992516994476318 5.49970006942749023 2.49154257774353027 0.233849167823791504 0.916474640369415283 -0.324636310338973999
-3.62991952896118164 3.05144953727722168 3.3002924919128418 0.678266704082489014 0.670668423175811768 -0.300263494253158569
-3.63062071800231934 3.0507957935333252 3.3002924919128418 -0.0799672380089759827 0.0528714582324028015 -0.995394229888916016
-5.49970006942749023 4.00051736831665039 5.10533523559570312 -0.982465267181396484 0.177533239126205444 -0.0569544807076454163
-1.61677336692810059 4.05683279037475586 0.000300000014249235392 0.0757413655519485474 0.177815914154052734 -0.981144547462463379
-5.49970006942749023 0.599535703659057617 2.88112187385559082 -0.921457290649414062 -0.261312872171401978 -0.287457734346389771
-5.49970006942749023 1.48143637180328369 5.18650531768798828 -0.965702831745147705 -0.253930479288101196 -0.0541968978941440582
-5.49970006942749023 1.09960365295410156 3.84521055221557617 -0.935432255268096924 -0.25808417797088623 -0.24157598614692688
-1.77339518070220947 1.52243077754974365 3.0328521728515625 -0.0295367445796728134 0.168104752898216248 -0.985326528549194336
-0.000300000014249235392 4.28332233428955078 1.73001110553741455 0.92353212833404541 0.122654274106025696 -0.363378912210464478
-0.000300000014249235392 3.57939839363098145 0.556305408477783203 0.919221401214599609 0.064547516405582428 -0.388414144515991211
-0.000300000014249235392 2.3479311466217041 3.82472634315490723 0.958349466323852539 -0.00406889244914054871 -0.285568922758102417
-4.98803043365478516 5.49970006942749023 4.77560710906982422 -0.176777482032775879 0.980388164520263672 -0.0871128067374229431
-0.000300000014249235392 3.10428690910339355 4.63809823989868164 0.635726809501647949 -0.771800339221954346 -0.0132566662505269051
-1.97280204296112061 5.49970006942749023 4.67925930023193359 0.686791777610778809 0.725704312324523926 0.0408695340156555176
-1.97739601135253906 5.49970006942749023 4.67891120910644531 0.0260348673909902573 0.994725584983825684 -0.0992118716239929199
-3.05259180068969727 5.49970006942749023 4.310455322265625 0.0306395348161458969 0.987687110900878906 -0.153412342071533203
-4.59791374206542969 5.49970006942749023 5.40070629119873047 -0.338809937238693237 0.940803229808807373 -0.00984994135797023773
-3.00928997993469238 1.18758594989776611 0.000300000014249235392 -0.180139467120170593 -0.000835319398902356625 -0.983640730381011963
-3.00903773307800293 1.18762385845184326 0.000300000014249235392 0.383237451314926147 0.246505022048950195 -0.890148520469665527
-3.00917601585388184 1.18750941753387451 0.000300000014249235392 -0.0298047102987766266 -0.103874638676643372 -0.99414372444152832
-5.49970006942749023 3.77579307556152344 5.02918624877929688 -0.988494157791137695 0.12453702837228775 -0.0858466252684593201
-5.49970006942749023 2.35492134094238281 1.98954534530639648 -0.910816073417663574 0.0492617152631282806 -0.409862518310546875
-5.49970006942749023 2.95336079597473145 4.51313495635986328 -0.984179139137268066 0.0096594570204615593 -0.176912575960159302
-0.000300000014249235392 4.16403388977050781 1.84560513496398926 0.923207879066467285 0.166622281074523926 -0.34630054235458374
-3.15718793869018555 2.88580632209777832 3.3002924919128418 -0.519824206829071045 -0.53744053840637207 -0.664033472537994385
-3.15694975852966309 2.88603425025939941 3.3002924919128418 0.0120375817641615868 -0.048708353191614151 -0.998740434646606445
-0.000300000014249235392 2.1505129337310791 5.40524387359619141 0.984550297260284424 -0.174712017178535461 -0.0116769392043352127
-5.49970006942749023 1.98159623146057129 5.30756950378417969 -0.999297022819519043 0.0300269760191440582 -0.0224467013031244278
-0.000300000014249235392 2.5987846851348877 5.03669261932373047 0.991683840751647949 0.0727767795324325562 -0.106144405901432037
-4.27487707138061523 2.67325305938720703 3.3002924919128418 -0.209118545055389404 0.397902309894561768 -0.893276691436767578
-4.27448558807373047 2.67321610450744629 3.3002924919128418 0.572381377220153809 0.599687337875366211 -0.559244751930236816
-4.27486276626586914 2.6728966236114502 3.3002924919128418 -0.2291058748960495 0.00623328797519207001 -0.973381519317626953
-4.2676091194152832 5.49970006942749023 2.43371915817260742 -0.129175767302513123 0.920720577239990234 -0.368221670389175415
-3.98850893974304199 2.55020856857299805 0.925900518894195557 0.207651048898696899 0.942979097366333008 -0.260137438774108887
-3.98915696144104004 2.55000758171081543 0.925772249698638916 -0.435315102338790894 0.788921236991882324 -0.433709651231765747
-0.000300000014249235392 1.29062271118164062 5.20204830169677734 0.976503074169158936 -0.207721292972564697 -0.0573896914720535278
-2.88940024375915527 1.69971489906311035 0.000300000014249235392 -0.616023063659667969 -0.292074978351593018 -0.731579005718231201
-5.49970006942749023 2.9241631031036377 4.07559013366699219 -0.949338912963867188 0.19284898042678833 -0.248122543096542358
-1.18152737617492676 4.7224726676940918 0.000300000014249235392 0.126358121633529663 0.459382504224777222 -0.879204869270324707
-1.34106385707855225 5.49970006942749023 4.53053712844848633 0.222731530666351318 0.964856505393981934 -0.139436960220336914
-2.75772714614868164 1.12163591384887695 1.65029621124267578 0.0538300685584545135 -0.168639674782752991 -0.984206736087799072
-2.60356903076171875 0.502355098724365234 0.000300000014249235392 0.0571133196353912354 -0.109746091067790985 -0.992317318916320801
-3.0978240966796875 -0.838583946228027344 0.000300000014249235392 -0.0398564785718917847 -0.25884440541267395 -0.965096354484558105
-2.04204559326171875 4.80956459045410156 0.000300000014249235392 0.779149174690246582 -0.304878979921340942 -0.547700107097625732
-2.04258131980895996 4.80967903137207031 0.000300000014249235392 -0.338266491889953613 -0.162614211440086365 -0.926893949508666992
-0.607057094573974609 5.49970006942749023 2.45463037490844727 0.187170475721359253 0.925734400749206543 -0.328607648611068726
-5.49970006942749023 0.83047640323638916 5.06597232818603516 -0.94118952751159668 -0.328896611928939819 -0.0773906633257865906
-2.01156806945800781 5.49970006942749023 0.666955947875976562 0.0291775409132242203 0.922613978385925293 -0.384619295597076416
-3.35334372520446777 5.49970006942749023 2.66968989372253418 -0.0349780954420566559 0.928857266902923584 -0.368782579898834229
-0.000300000014249235392 2.63345217704772949 0.379549264907836914 0.897491991519927979 -0.0474943183362483978 -0.438466012477874756
-1.57182419300079346 5.49970006942749023 2.66886329650878906 0.960261642932891846 0.0850163623690605164 -0.265837937593460083
-1.57514536380767822 5.49970006942749023 2.66971158981323242 0.20788748562335968 0.937168121337890625 -0.280176162719726562
-3.48268580436706543 4.43531274795532227 0.765157341957092285 0.0031058494932949543 -0.309662491083145142 -0.950841426849365234
-3.49327468872070312 5.49970006942749023 4.03424549102783203 0.00147139246109873056 0.972913026809692383 -0.231166571378707886
-5.49970006942749023 5.30018424987792969 4.65508699417114258 -0.946962356567382812 0.302680164575576782 -0.107921034097671509
-0.000300000014249235392 4.47456884384155273 0.86403965950012207 0.914865374565124512 0.199355959892272949 -0.351110309362411499
