ply
format ascii 1.0
element vertex 380
property float x
property float y
property float z
property float nx
property float ny
property float nz
end_header
-2.31634640693664551 1.71108126640319824 2.86374020576477051 0.675120353698730469 -0.0665820613503456116 -0.734696865081787109
-0.410180330276489258 1.67564117908477783 5.49700117111206055 0.0986981987953186035 0.179491370916366577 0.978795945644378662
-1.60351097583770752 1.4395146369934082 2.96967411041259766 -0.349151849746704102 0.323234617710113525 -0.87955242395401001
-2.15358281135559082 1.84752631187438965 2.95244336128234863 0.458672195672988892 -0.272233545780181885 -0.845877528190612793
-1.79523825645446777 2.33159565925598145 2.53542900085449219 -0.0171211883425712585 -0.953698873519897461 -0.300275534391403198
-2.85180926322937012 1.22849297523498535 0.0583480596542358398 0.653123617172241211 -0.168411314487457275 0.738286614418029785
-1.69977355003356934 1.87959527969360352 1.71305382251739502 -0.340553641319274902 -0.588837146759033203 0.733003437519073486
-5.49700021743774414 3.10817503929138184 1.142547607421875 -0.167602121829986572 -0.446771353483200073 -0.878808796405792236
-1.84776318073272705 2.03561210632324219 2.94542193412780762 0.0209334976971149445 -0.521654248237609863 -0.852900147438049316
-0.00300000002607703209 4.38976049423217773 3.23291826248168945 0.252143621444702148 -0.963453292846679688 0.0904510319232940674
-2.11258339881896973 1.86291635036468506 2.96743345260620117 0.408475935459136963 -0.282245397567749023 -0.86803513765335083
-2.24626517295837402 2.04517316818237305 2.77483654022216797 0.561182975769042969 -0.54408794641494751 -0.623732328414916992
-2.42607688903808594 3.89667320251464844 5.49700021743774414 0.646320641040802002 -0.716394662857055664 0.262770503759384155
-0.00300000002607703209 1.53791594505310059 2.09175586700439453 0.985838890075683594 -0.160368144512176514 -0.0490281581878662109
-2.4721837043762207 5.49700021743774414 4.43602848052978516 0.364802241325378418 0.869371652603149414 -0.33333510160446167
-2.49047279357910156 1.51513504981994629 2.55128788948059082 0.937014341354370117 0.196832150220870972 -0.288550317287445068
-1.75314509868621826 1.23329460620880127 2.8936464786529541 -0.136523634195327759 0.622318089008331299 -0.770766854286193848
-2.21662163734436035 1.89174449443817139 2.8978886604309082 0.531606197357177734 -0.348939597606658936 -0.771774649620056152
-1.21636521816253662 0.917794942855834961 0.427111893892288208 -0.356283217668533325 0.652136802673339844 0.669163525104522705
-3.22761964797973633 4.51726388931274414 2.5382378101348877 0.234062120318412781 -0.845732331275939941 0.479532927274703979
-1.73638308048248291 1.60914289951324463 3.04390597343444824 -0.154908075928688049 0.0655199289321899414 -0.985753834247589111
-1.81616795063018799 1.41657745838165283 3.00666046142578125 0.155763298273086548 -0.0568614713847637177 -0.986156582832336426
-1.35805070400238037 2.13005375862121582 2.51854729652404785 -0.693973422050476074 -0.677437067031860352 -0.243885040283203125
-2.32956409454345703 2.1567997932434082 2.35299491882324219 0.690741777420043945 -0.723090767860412598 -0.00393096264451742172
-2.00839376449584961 1.17749667167663574 2.82246136665344238 0.244319140911102295 0.701101422309875488 -0.669899225234985352
-2.91264796257019043 2.88112354278564453 0.808339834213256836 -0.871069431304931641 0.268163323402404785 -0.41149294376373291
-3.70762443542480469 3.67557168006896973 3.30299234390258789 -0.314719855785369873 0.349191159009933472 -0.882619142532348633
-2.46320271492004395 1.81793487071990967 2.62614274024963379 0.881753802299499512 -0.206725448369979858 -0.423998594284057617
-2.21776366233825684 1.74452388286590576 2.9378809928894043 0.522368729114532471 -0.126741200685501099 -0.843248248100280762
-2.78823471069335938 1.45925223827362061 0.00300000002607703209 -0.384292840957641602 -0.468575209379196167 -0.7954598069190979
-2.17068219184875488 1.74042189121246338 2.96639919281005859 0.481274843215942383 -0.119489267468452454 -0.868387460708618164
-2.13442301750183105 1.09784436225891113 2.62698793411254883 0.413215309381484985 0.803619384765625 -0.428309440612792969
-0.00300000002607703209 2.00319933891296387 3.58102178573608398 0.141319036483764648 -0.0107505191117525101 -0.989905714988708496
-1.94607031345367432 2.34566283226013184 2.42439889907836914 0.182572633028030396 -0.977815568447113037 -0.10268382728099823
-2.22127652168273926 1.19141602516174316 2.69298243522644043 0.532407402992248535 0.672807693481445312 -0.513684868812561035
-2.18787527084350586 1.5067213773727417 2.94010066986083984 0.49306681752204895 0.204900339245796204 -0.845518231391906738
-2.34172558784484863 1.89736974239349365 1.93629622459411621 0.496117621660232544 -0.565358638763427734 0.658966541290283203
-2.1423342227935791 1.06924223899841309 2.5414118766784668 0.483793437480926514 0.67705458402633667 -0.554563820362091064
-1.85304522514343262 1.73959553241729736 3.0505833625793457 0.0572642646729946136 -0.110853806138038635 -0.992185592651367188
-1.50812625885009766 2.25363969802856445 2.22089934349060059 -0.465899884700775146 -0.840001106262207031 0.278092652559280396
-1.18609619140625 1.81892120838165283 2.50479936599731445 -0.40600171685218811 -0.482454061508178711 -0.776144742965698242
-1.65667414665222168 0.511687278747558594 5.49700021743774414 0.0659505948424339294 -0.349319010972976685 0.93468010425567627
-1.78156411647796631 1.98622167110443115 2.97121906280517578 -0.0659109055995941162 -0.479385256767272949 -0.875126004219055176
-1.67101204395294189 1.99833738803863525 2.94231939315795898 -0.222076684236526489 -0.470658838748931885 -0.853909969329833984
-1.89963436126708984 2.26172447204589844 2.70488286018371582 0.0749352127313613892 -0.859735786914825439 -0.505211949348449707
-0.776971101760864258 2.08159017562866211 5.49700021743774414 0.326723933219909668 0.120964348316192627 0.937346816062927246
-2.04984855651855469 1.61411285400390625 3.02033472061157227 0.31909257173538208 0.0612985119223594666 -0.945739030838012695
-2.29392719268798828 1.04428315162658691 1.65299618244171143 0.620164275169372559 0.287051647901535034 -0.730066955089569092
-3.5965578556060791 -0.104574836790561676 0.74832528829574585 -0.450105160474777222 0.458881378173828125 -0.766050517559051514
-2.20831108093261719 1.9389348030090332 2.88106274604797363 0.504380941390991211 -0.405698716640472412 -0.76223909854888916
-1.77022266387939453 2.0762019157409668 2.9125218391418457 -0.0940082445740699768 -0.602119207382202148 -0.792852401733398438
-1.59961378574371338 1.03762686252593994 2.20267248153686523 -0.335189908742904663 0.903903961181640625 0.265716612339019775
-2.21346235275268555 1.87116396427154541 1.80843579769134521 0.431412637233734131 -0.509216487407684326 0.744702458381652832
-1.97194290161132812 2.31090593338012695 2.57012009620666504 0.177514374256134033 -0.925856471061706543 -0.333584189414978027
-1.81518971920013428 1.73197853565216064 3.0507509708404541 -0.0246900320053100586 -0.105287238955497742 -0.994135379791259766
-2.26397871971130371 1.75158405303955078 1.81293952465057373 0.634325385093688965 -0.215222269296646118 0.742503046989440918
-2.52641391754150391 1.57896578311920166 2.29322242736816406 0.992380261421203613 0.114713177084922791 0.0449696294963359833
-4.02605819702148438 5.49700021743774414 4.61127185821533203 0.0120370527729392052 0.972138166427612305 -0.234099283814430237
-2.35651350021362305 2.0413966178894043 2.63069820404052734 0.736250340938568115 -0.52932584285736084 -0.421603679656982422
-2.24385595321655273 1.32508397102355957 2.81037449836730957 0.566171348094940186 0.482350528240203857 -0.668422043323516846
-1.95112800598144531 1.32793319225311279 2.95585227012634277 0.164339423179626465 0.455096006393432617 -0.875145852565765381
-2.11319637298583984 1.68407261371612549 2.9985969066619873 0.399666786193847656 -0.0428784415125846863 -0.915657103061676025
-1.8023146390914917 2.25431489944458008 1.99708390235900879 0.403954952955245972 -0.621010124683380127 0.671689510345458984
-0.00300000002607703209 4.35663223266601562 3.19373321533203125 0.907594680786132812 -0.0964495688676834106 -0.408618927001953125
-2.01646947860717773 1.32535052299499512 2.93855619430541992 0.248702704906463623 0.458841860294342041 -0.853001236915588379
-2.00482344627380371 1.35578799247741699 2.95878410339355469 0.231641247868537903 0.424619615077972412 -0.875237464904785156
-3.23412418365478516 4.30858755111694336 3.30299210548400879 0.591103732585906982 0.726943612098693848 -0.349498152732849121
-2.36800742149353027 1.37957608699798584 2.70871996879577637 0.753844141960144043 0.414733707904815674 -0.509622454643249512
-2.30427002906799316 1.92357635498046875 2.80695390701293945 0.643152117729187012 -0.36123967170715332 -0.675174951553344727
-5.49700021743774414 5.28466224670410156 5.28221225738525391 -0.754867792129516602 -0.517145514488220215 -0.403404414653778076
-5.08431720733642578 5.49700021743774414 0.0488910675048828125 -0.647492408752441406 0.662111043930053711 -0.377309679985046387
-3.67790555953979492 3.62428188323974609 3.35014081001281738 -0.611719846725463867 0.434368669986724854 0.661152541637420654
-2.53416967391967773 4.08762741088867188 5.49699974060058594 -0.167279094457626343 0.607909858226776123 0.776185214519500732
-2.43802475929260254 1.31698012351989746 2.3017730712890625 0.859982013702392578 0.493740439414978027 0.12904001772403717
-2.80502700805664062 2.91450905799865723 2.73943042755126953 -0.60491633415222168 0.771817207336425781 0.19589608907699585
-1.85890984535217285 1.74665868282318115 3.04965567588806152 0.223534256219863892 -0.309927970170974731 -0.92410886287689209
-1.86270582675933838 1.49624764919281006 3.03305220603942871 0.0774751231074333191 0.178707674145698547 -0.98084723949432373
-0.00300000002607703209 3.53705739974975586 4.39625835418701172 0.561346828937530518 0.565499782562255859 0.604234933853149414
-1.71535742282867432 1.7511909008026123 3.03666400909423828 -0.171874433755874634 -0.130789577960968018 -0.976398110389709473
-2.32752299308776855 1.9329526424407959 2.77566194534301758 0.67088019847869873 -0.38977128267288208 -0.630870938301086426
-1.42723989486694336 1.64189291000366211 2.91281604766845703 -0.593997657299041748 0.0445719286799430847 -0.803231120109558105
-1.9615485668182373 2.32664632797241211 2.52086234092712402 0.17277410626411438 -0.954170048236846924 -0.244353458285331726
-4.37263107299804688 3.21051168441772461 5.49700021743774414 -0.590803921222686768 0.361356735229492188 0.721368312835693359
-5.49700021743774414 -0.819445610046386719 3.76763248443603516 -0.708459198474884033 -0.150823250412940979 -0.689447522163391113
-2.02267718315124512 1.27763748168945312 1.65299618244171143 0.374209582805633545 0.378281235694885254 -0.846682071685791016
-1.83305811882019043 2.14985466003417969 2.85400056838989258 -0.00572709226980805397 -0.681652069091796875 -0.731654107570648193
-1.90044295787811279 1.29807960987091064 2.94479775428771973 0.0947496518492698669 0.509640932083129883 -0.855154156684875488
-2.48127436637878418 1.72974562644958496 2.61916995048522949 0.918591618537902832 -0.116666443645954132 -0.377595603466033936
-1.58737218379974365 2.18691062927246094 2.73420548439025879 -0.368314981460571289 -0.74599909782409668 -0.554823756217956543
-1.65881645679473877 2.25249576568603516 2.04268455505371094 -0.238845393061637878 -0.844007790088653564 0.480212181806564331
-2.16283416748046875 1.43407225608825684 2.92973566055297852 0.463029593229293823 0.319127857685089111 -0.826898455619812012
-2.16424417495727539 1.21244418621063232 2.77331757545471191 0.453039824962615967 0.466433167457580566 -0.759733498096466064
-5.49700021743774414 0.0398435592651367188 3.45511269569396973 -0.671745717525482178 -0.69374239444732666 -0.259767532348632812
-5.49700021743774414 1.69538533687591553 1.18588566780090332 -0.966522097587585449 0.0716409087181091309 -0.246379315853118896
-2.37298846244812012 1.66349637508392334 2.80571818351745605 0.751278281211853027 0.00589671824127435684 -0.659959197044372559
-1.73428809642791748 1.61989617347717285 3.04419302940368652 -0.14757809042930603 0.0839827060699462891 -0.985478341579437256
-2.43336796760559082 1.93646669387817383 2.59740161895751953 0.847102642059326172 -0.369573295116424561 -0.381880581378936768
-1.96147274971008301 1.3528209924697876 1.65299630165100098 0.887599706649780273 0.0399881675839424133 -0.458876550197601318
-2.03449440002441406 2.04538059234619141 2.90640783309936523 0.273831874132156372 -0.543874859809875488 -0.793231546878814697
-2.04660725593566895 1.35507297515869141 2.94536733627319336 0.284515380859375 0.431778371334075928 -0.855931401252746582
-1.98475003242492676 1.6849370002746582 3.03968262672424316 0.268063515424728394 -0.0828306525945663452 -0.959833920001983643
-2.08123469352722168 1.40314352512359619 2.95608043670654297 0.341116517782211304 0.334595352411270142 -0.878456354141235352
-5.49700021743774414 2.94624853134155273 2.75442004203796387 -0.514770090579986572 -0.510728716850280762 -0.688598513603210449
-1.83776843547821045 2.35146427154541016 2.43927741050720215 0.37099909782409668 -0.605764508247375488 -0.703853070735931396
-3.65661239624023438 3.52968835830688477 3.30299234390258789 -0.256934702396392822 -0.187121540307998657 -0.948140323162078857
-2.43391966819763184 3.4091036319732666 5.49700021743774414 -0.164865180850028992 0.477396339178085327 0.863083362579345703
-1.92264151573181152 2.26615142822265625 2.02423262596130371 0.216948539018630981 -0.852869331836700439 0.474918127059936523
-0.00299976160749793053 2.98791313171386719 0.814079761505126953 0.422011703252792358 0.193126112222671509 -0.885781228542327881
-1.9142448902130127 1.14222228527069092 2.8073420524597168 0.0950420722365379333 0.734363079071044922 -0.672069847583770752
-1.94418442249298096 2.10303306579589844 2.8867647647857666 0.187799692153930664 -0.5729636549949646 -0.797774314880371094
-5.49700021743774414 -0.0900137424468994141 5.42912769317626953 -0.992097377777099609 0.124500691890716553 -0.0155685562640428543
-1.65221500396728516 1.17154622077941895 1.65299582481384277 -0.111639261245727539 0.421981751918792725 -0.899704456329345703
-2.29037642478942871 3.68913793563842773 5.49700021743774414 0.617713451385498047 -0.698083817958831787 0.36208990216255188
-3.81959962844848633 4.33362579345703125 0.543883204460144043 0.395063012838363647 -0.385482370853424072 0.833863615989685059
-0.00299976160749793053 1.95929634571075439 2.94437217712402344 0.938690662384033203 -0.286376595497131348 -0.191959366202354431
-2.53482484817504883 1.66860032081604004 2.34858083724975586 0.996537923812866211 -0.0807434841990470886 -0.0198161862790584564
-0.00300000002607703209 4.32843399047851562 3.95554804801940918 0.89686816930770874 -0.358014225959777832 0.259717702865600586
-1.74959194660186768 2.21098470687866211 2.7743372917175293 -0.12546578049659729 -0.76913607120513916 -0.626648306846618652
-2.51259160041809082 1.7821352481842041 2.48773789405822754 0.96408390998840332 -0.179506570100784302 -0.195753872394561768
-2.49789643287658691 1.87015509605407715 2.44628572463989258 0.926504909992218018 -0.337981075048446655 -0.165400862693786621
-2.05719852447509766 1.00822651386260986 2.34292292594909668 0.482361018657684326 0.262427866458892822 -0.835738897323608398
-2.00678801536560059 1.84010887145996094 3.01096773147583008 0.242588996887207031 -0.260122954845428467 -0.934605121612548828
-1.96144592761993408 1.98114204406738281 2.96542263031005859 0.172680139541625977 -0.456375181674957275 -0.872870683670043945
-1.45171916484832764 1.73338890075683594 2.9268341064453125 -0.546642899513244629 -0.105137713253498077 -0.830739259719848633
-1.61700022220611572 1.78241074085235596 3.00464391708374023 -0.303872853517532349 -0.159931138157844543 -0.939193010330200195
-2.29340457916259766 1.83887791633605957 1.85985684394836426 0.654114186763763428 -0.263132780790328979 0.709151506423950195
-1.98927152156829834 1.50957274436950684 3.02006411552429199 0.221329599618911743 0.219542622566223145 -0.950165450572967529
-1.76038622856140137 2.34918737411499023 2.40895605087280273 0.058049321174621582 -0.664876282215118408 -0.74469447135925293
-2.00502610206604004 1.57989823818206787 3.02951145172119141 0.253439933061599731 0.114119261503219604 -0.960596203804016113
-2.527618408203125 5.49700021743774414 2.25916242599487305 -0.0777808800339698792 0.780124068260192871 0.620770931243896484
-2.00830507278442383 1.66174042224884033 3.03430414199829102 0.269333750009536743 -0.0412647351622581482 -0.962162435054779053
-1.63955843448638916 1.83123958110809326 3.00157690048217773 -0.264396935701370239 -0.23185083270072937 -0.936130046844482422
-0.00300000002607703209 1.31998300552368164 5.44008636474609375 0.909999251365661621 0.410824894905090332 -0.0558946505188941956
-1.52132892608642578 1.20278716087341309 2.76038956642150879 -0.211491376161575317 0.107537195086479187 -0.971445918083190918
-2.01534342765808105 1.83993887901306152 3.00871920585632324 0.255671560764312744 -0.254383862018585205 -0.932695508003234863
-1.45886635780334473 1.59509098529815674 2.93159747123718262 -0.554795384407043457 0.0838599205017089844 -0.827749729156494141
-2.92429924011230469 2.52311301231384277 0.00300000002607703209 0.112715132534503937 -0.941710889339447021 -0.316979348659515381
-0.00300000002607703209 -0.339318752288818359 0.718573093414306641 0.74612957239151001 -0.556513309478759766 0.365490853786468506
-1.52993440628051758 1.48339879512786865 2.95032477378845215 -0.44703972339630127 0.250968128442764282 -0.858586430549621582
-1.28042101860046387 1.31442677974700928 2.16466784477233887 -0.363570362329483032 0.152334272861480713 -0.919027209281921387
-1.92170536518096924 1.10499608516693115 1.65299618244171143 0.699619114398956299 -0.0204280279576778412 -0.714223980903625488
-0.00300023844465613365 0.246692419052124023 4.39946079254150391 0.721827566623687744 -0.557320535182952881 -0.410315483808517456
-1.67270493507385254 1.6789095401763916 3.03258752822875977 0.103674784302711487 -0.0236100871115922928 -0.994331002235412598
-3.89668416976928711 2.89769172668457031 5.49700021743774414 -0.523754358291625977 0.3107776939868927 0.793157577514648438
-0.00300000002607703209 4.62296915054321289 5.32256507873535156 0.905566513538360596 -0.394236534833908081 -0.156610399484634399
-2.82067155838012695 3.8534393310546875 5.49700021743774414 -0.689664363861083984 -0.690959453582763672 0.21665211021900177
-3.30269050598144531 5.43692827224731445 5.49700021743774414 0.091321796178817749 -0.0419731289148330688 0.994936466217041016
-2.58459234237670898 1.09147584438323975 1.65299618244171143 0.725716114044189453 0.398790448904037476 -0.560626804828643799
-2.11841487884521484 2.1040961742401123 2.81894159317016602 0.428390771150588989 -0.631323575973510742 -0.646461069583892822
-1.5684359073638916 1.88674569129943848 2.95612955093383789 -0.371364235877990723 -0.310970038175582886 -0.874863624572753906
-0.227046012878417969 -0.818728446960449219 0.00300000002607703209 0.518484711647033691 -0.815264463424682617 -0.257909655570983887
-1.87595510482788086 2.22669720649719238 2.76238799095153809 0.0712405145168304443 -0.807797074317932129 -0.585139870643615723
-1.87470340728759766 1.41583693027496338 3.00621962547302246 0.0460751503705978394 0.337573587894439697 -0.940170824527740479
-2.19628214836120605 1.97893977165222168 1.85013163089752197 0.525699377059936523 -0.444819390773773193 0.725104033946990967
-1.81385493278503418 5.49700021743774414 0.0268557071685791016 -0.159597128629684448 0.593161344528198242 0.789106070995330811
-2.36313152313232422 2.07115817070007324 2.5669243335723877 0.745963990688323975 -0.573976278305053711 -0.337770581245422363
-2.07745885848999023 2.07076430320739746 2.87004280090332031 0.362466633319854736 -0.60045158863067627 -0.712794363498687744
-2.51850390434265137 1.52618861198425293 2.4133915901184082 0.972115278244018555 0.211808979511260986 -0.100641995668411255
-3.97278428077697754 1.88943767547607422 5.49700021743774414 -0.564494192600250244 0.0580877065658569336 0.823390603065490723
-2.07910323143005371 1.81505000591278076 2.99461627006530762 0.34126010537147522 -0.222727835178375244 -0.913199841976165771
-1.56942903995513916 1.87499487400054932 2.96069884300231934 -0.376488208770751953 -0.30826866626739502 -0.873628675937652588
-5.49700021743774414 0.451919794082641602 1.50574779510498047 -0.777398288249969482 0.490583360195159912 0.393674790859222412
-1.42954123020172119 1.73092973232269287 2.91104578971862793 -0.587546288967132568 -0.115422084927558899 -0.800916433334350586
-0.00300000002607703209 2.23690390586853027 5.48742485046386719 0.996300041675567627 0.085020408034324646 -0.0125615540891885757
-1.46528434753417969 4.17899894714355469 5.49700021743774414 -0.0323992520570755005 0.413506358861923218 0.909924566745758057
-2.07795143127441406 1.28632748126983643 2.89010977745056152 0.348836421966552734 0.53641122579574585 -0.768489599227905273
-1.920196533203125 1.9894251823425293 2.96771645545959473 0.115915708243846893 -0.475665420293807983 -0.871955275535583496
-2.19530439376831055 1.5624462366104126 2.94813346862792969 0.537383079528808594 0.0899023562669754028 -0.838532686233520508
-1.41692376136779785 2.10466265678405762 2.0365903377532959 -0.594241619110107422 -0.661971330642700195 0.456804990768432617
-4.385040283203125 2.98818230628967285 0.231745004653930664 -0.00905815325677394867 0.881457328796386719 0.472176820039749146
-1.1995314359664917 1.90482938289642334 2.42989444732666016 -0.738200843334197998 -0.50122678279876709 -0.451476573944091797
-1.97638022899627686 1.4151231050491333 2.99282503128051758 0.179283559322357178 0.255556553602218628 -0.950025439262390137
-2.14541220664978027 2.15765881538391113 2.74041175842285156 0.447776198387145996 -0.706656515598297119 -0.547844052314758301
-5.49700021743774414 1.36841869354248047 0.818085908889770508 -0.982841730117797852 -0.124131083488464355 -0.136431649327278137
-2.2958989143371582 2.06405520439147949 2.69809341430664062 0.542372584342956543 -0.259411901235580444 -0.799085497856140137
-0.546650409698486328 3.00872921943664551 5.49700021743774414 0.361362934112548828 0.365020751953125 0.858007311820983887
-1.23677897453308105 1.34081590175628662 2.42255973815917969 -0.39739227294921875 0.046987287700176239 -0.916445136070251465
-4.02008056640625 4.27143478393554688 1.46012544631958008 0.197954326868057251 -0.778963267803192139 0.595004498958587646
-5.49700021743774414 1.79997014999389648 0.0668268203735351562 -0.883044421672821045 -0.462973237037658691 -0.0767355337738990784
-2.02569365501403809 2.06086468696594238 2.89846658706665039 0.255970418453216553 -0.558499634265899658 -0.789022982120513916
-1.91089057922363281 1.08207571506500244 2.7252657413482666 0.113036021590232849 0.823798477649688721 -0.555498838424682617
-0.00300000002607703209 0.562229156494140625 3.76861238479614258 0.757675647735595703 -0.514025211334228516 0.402126908302307129
-1.61373507976531982 1.95739233493804932 2.94446086883544922 -0.307666361331939697 -0.425662219524383545 -0.850971817970275879
-0.00300000002607703209 3.63744068145751953 1.15966534614562988 0.445069730281829834 0.874431192874908447 -0.193088069558143616
-1.17282342910766602 3.40857601165771484 5.49700021743774414 0.190688371658325195 0.479523926973342896 0.856560111045837402
-1.42138016223907471 1.96609485149383545 1.89869892597198486 -0.292486578226089478 -0.667067527770996094 0.685180723667144775
-0.00300000002607703209 2.06266093254089355 4.28285026550292969 0.66220855712890625 0.442817240953445435 0.604477226734161377
-0.00300000002607703209 3.97939491271972656 5.16134357452392578 0.45639723539352417 0.571142613887786865 0.682274222373962402
-4.54931449890136719 4.9761805534362793 0.00300000002607703209 -0.424880236387252808 -0.657660067081451416 -0.622061073780059814
-2.12961578369140625 1.40164744853973389 2.93341612815856934 0.422494202852249146 0.379326283931732178 -0.823170900344848633
-2.23659706115722656 1.29686880111694336 2.79424214363098145 0.385600626468658447 0.0358053334057331085 -0.921970844268798828
-5.49700021743774414 -0.641214370727539062 3.81098127365112305 -0.477518349885940552 -0.341054648160934448 0.809727132320404053
-2.09737062454223633 1.6576765775680542 3.00528597831726074 0.359268456697463989 0.000367419794201850891 -0.933234214782714844
-1.88783347606658936 1.91630125045776367 3.00478768348693848 0.0711492970585823059 -0.401880711317062378 -0.912923693656921387
-2.36776518821716309 2.06628990173339844 2.56492066383361816 0.739916324615478516 -0.584580063819885254 -0.332851290702819824
-2.06902885437011719 1.8202509880065918 2.99708986282348633 0.328694045543670654 -0.243679314851760864 -0.912458539009094238
-1.84291183948516846 1.54207181930541992 3.04334378242492676 0.0305138677358627319 0.174465641379356384 -0.98419034481048584
-2.02762842178344727 1.57354748249053955 3.0226433277130127 0.286886096000671387 0.122558742761611938 -0.950092554092407227
-2.16697168350219727 1.60500407218933105 2.97023153305053711 0.478377252817153931 0.0702055171132087708 -0.875343561172485352
-1.64283633232116699 2.28436040878295898 2.59189939498901367 -0.285025179386138916 -0.894472718238830566 -0.344498574733734131
-1.69165575504302979 1.47917675971984863 3.01050090789794922 -0.201967477798461914 0.278158128261566162 -0.939061880111694336
-1.53696417808532715 3.14259839057922363 5.49700021743774414 0.0937767699360847473 0.428866267204284668 0.898487627506256104
-0.00300023844465613365 0.0931692123413085938 4.08219528198242188 0.715247809886932373 -0.552421391010284424 -0.42807847261428833
-1.83106386661529541 1.51345205307006836 3.03731846809387207 0.208796977996826172 -0.158616021275520325 -0.965010285377502441
-2.3358311653137207 1.52286481857299805 2.82544398307800293 0.691873610019683838 0.177243888378143311 -0.699925422668457031
-1.74795889854431152 1.09332311153411865 2.73655939102172852 -0.138255313038825989 0.819255590438842773 -0.556512117385864258
-2.30551838874816895 1.9405515193939209 2.79552817344665527 0.677931785583496094 -0.378465771675109863 -0.630215942859649658
-1.7006305456161499 2.00270223617553711 2.94785881042480469 -0.205956131219863892 -0.489382416009902954 -0.847400128841400146
-1.67785263061523438 1.04970622062683105 2.62691855430603027 -0.231054350733757019 0.87348175048828125 -0.428536683320999146
-1.73724639415740967 1.49456918239593506 3.02404427528381348 -0.135452017188072205 0.224824234843254089 -0.964938759803771973
-5.49700021743774414 2.29092240333557129 4.49486207962036133 -0.782672762870788574 -0.422774970531463623 -0.456820130348205566
-3.53964376449584961 0.476441711187362671 0.74832528829574585 -0.243384659290313721 0.137767940759658813 -0.960095822811126709
-4.09551000595092773 2.91548490524291992 3.30299258232116699 -0.278522849082946777 -0.945537865161895752 -0.168472528457641602
-0.00300000002607703209 3.96733832359313965 3.01267504692077637 0.614378631114959717 0.763503193855285645 0.19900175929069519
-1.98433399200439453 2.19757604598999023 2.77858233451843262 0.212683826684951782 -0.751358747482299805 -0.624680578708648682
-1.94818150997161865 1.78393864631652832 3.03591203689575195 0.159937769174575806 -0.162732124328613281 -0.973621189594268799
-2.15798258781433105 2.08207368850708008 2.81402468681335449 0.467241674661636353 -0.588156759738922119 -0.660118818283081055
-2.21979761123657227 1.86842381954193115 2.90485119819641113 0.523936808109283447 -0.306444942951202393 -0.79472118616104126
-1.80312645435333252 1.62533795833587646 3.05244040489196777 -0.0576834864914417267 0.0637124627828598022 -0.996299803256988525
-1.92675161361694336 1.21798515319824219 2.88189792633056641 0.112158924341201782 0.626583278179168701 -0.77124178409576416
-2.45482897758483887 1.98694741725921631 2.38615036010742188 0.889773249626159668 -0.453382670879364014 -0.0524187609553337097
-3.61707210540771484 -0.711688041687011719 0.00300000002607703209 0.368758708238601685 -0.859471023082733154 -0.354014962911605835
-1.81666433811187744 2.35490584373474121 2.39385390281677246 0.133837401866912842 -0.526588320732116699 -0.839519083499908447
-5.49700021743774414 4.31417560577392578 3.73794460296630859 -0.749474823474884033 0.485106885433197021 -0.450509518384933472
-1.90550470352172852 1.89806449413299561 3.0102536678314209 0.254119515419006348 -0.198847800493240356 -0.946510910987854004
-2.11300516128540039 1.73181450366973877 1.7211761474609375 0.342906445264816284 -0.350898325443267822 0.87136995792388916
-0.00300000002607703209 3.51257133483886719 4.37815284729003906 0.566062033176422119 0.565933585166931152 0.599410533905029297
-5.49700021743774414 1.93729400634765625 4.42314624786376953 -0.874586284160614014 0.0658823326230049133 0.480373501777648926
-2.25669360160827637 1.15619802474975586 2.57876920700073242 0.589363336563110352 0.734627008438110352 -0.336116105318069458
-0.270985841751098633 2.11654090881347656 0.00300000002607703209 0.381546527147293091 -0.434452086687088013 -0.81588822603225708
-3.48228955268859863 5.49700021743774414 1.67883670330047607 0.301471024751663208 0.947467207908630371 -0.106870137155056
-4.43797206878662109 3.20981764793395996 5.49700021743774414 0.0726376175880432129 -0.287058085203170776 0.95515519380569458
-2.09761929512023926 1.52151525020599365 2.9889523983001709 0.343898683786392212 0.18425142765045166 -0.920752465724945068
-2.12625694274902344 1.64343345165252686 2.99268913269042969 0.394041836261749268 0.0222558639943599701 -0.918823003768920898
-2.44723701477050781 1.33176374435424805 2.40483617782592773 0.856355786323547363 0.515813946723937988 -0.0243059210479259491
-1.82803130149841309 2.14241886138916016 2.86100649833679199 -0.0132248997688293457 -0.676542878150939941 -0.736284494400024414
-3.04937124252319336 5.42311668395996094 0.00299952318891882896 0.0880670472979545593 -0.0163450855761766434 -0.995980441570281982
-2.20827245712280273 1.5054929256439209 2.92689895629882812 0.530317425727844238 0.218005374073982239 -0.819290637969970703
-2.01805448532104492 1.73586177825927734 3.02782106399536133 0.259147971868515015 -0.107132896780967712 -0.959877610206604004
-1.35525763034820557 2.01540970802307129 2.01536703109741211 -0.670406103134155273 -0.519380867481231689 0.52990490198135376
-2.85272383689880371 2.89971256256103516 2.11562323570251465 -0.126964792609214783 0.795315265655517578 0.592750847339630127
-1.34721291065216064 2.05165004730224609 2.07103562355041504 -0.500565886497497559 -0.672207474708557129 -0.545500516891479492
-1.5378415584564209 1.7471846342086792 2.97645258903503418 -0.414655983448028564 -0.116127133369445801 -0.902538061141967773
-1.55826985836029053 1.66421353816986084 2.99169802665710449 -0.390132784843444824 -0.000581569969654083252 -0.920758485794067383
-3.81721806526184082 3.23928189277648926 3.30299234390258789 0.212218374013900757 0.21850508451461792 -0.952480435371398926
-1.85987138748168945 1.55008304119110107 3.04476761817932129 0.0487615242600440979 0.171860009431838989 -0.983913838863372803
-2.40491199493408203 1.74956750869750977 2.75537776947021484 0.581236481666564941 -0.167392045259475708 -0.796331644058227539
-0.00300000002607703209 -0.958424091339111328 0.617806911468505859 0.644706904888153076 -0.70387721061706543 0.298177599906921387
-2.89929533004760742 4.43910312652587891 5.49700021743774414 0.448888212442398071 0.587641417980194092 0.673183858394622803
-4.91211700439453125 1.88699436187744141 5.49700021743774414 -0.72437053918838501 0.0316989719867706299 0.688681900501251221
-3.05264663696289062 5.49699974060058594 1.19697773456573486 -0.287173330783843994 0.911235690116882324 -0.295264393091201782
-0.397950649261474609 5.49700021743774414 3.67132472991943359 0.198826640844345093 0.85513615608215332 0.478758960962295532
-2.12072515487670898 1.98258805274963379 2.90964674949645996 0.393755853176116943 -0.46834602952003479 -0.790954113006591797
-1.28771662712097168 4.69913196563720703 5.49700021743774414 0.144972681999206543 0.690455734729766846 0.708698868751525879
-5.49700021743774414 4.96586847305297852 4.01538991928100586 -0.6875457763671875 -0.55072331428527832 0.473270118236541748
-3.97014904022216797 2.55307698249816895 1.78708481788635254 0.232043877243995667 0.916681468486785889 0.325347155332565308
-1.897849440574646 1.7147831916809082 3.05068373680114746 0.087112918496131897 -0.0871326997876167297 -0.992380619049072266
-1.8509364128112793 1.70956456661224365 3.0534064769744873 -0.0176655855029821396 -0.0768097341060638428 -0.996889293193817139
-1.7347947359085083 1.72227120399475098 3.04354166984558105 -0.164558142423629761 -0.0829673409461975098 -0.982871830463409424
-2.31454277038574219 1.42727875709533691 2.80760931968688965 0.671484827995300293 0.330014914274215698 -0.663474321365356445
-2.44682717323303223 1.62733328342437744 2.69576358795166016 0.857774853706359863 0.0563623905181884766 -0.510926306247711182
-3.93883371353149414 -0.390860766172409058 0.74832528829574585 -0.550676822662353516 0.464590847492218018 -0.693477034568786621
-2.32770800590515137 1.16511726379394531 1.65299618244171143 -0.479423105716705322 -0.475707352161407471 -0.737466156482696533
-2.09984016418457031 1.243979811668396 1.87067854404449463 0.532920360565185547 0.525203466415405273 0.663443565368652344
-2.00315713882446289 1.4399954080581665 5.49700021743774414 -0.0579320937395095825 -0.082410961389541626 0.99491351842880249
-0.00300000002607703209 2.30725598335266113 5.12246799468994141 0.558315515518188477 0.190830767154693604 0.807383179664611816
-2.30234861373901367 1.98405945301055908 1.94865310192108154 0.808430790901184082 -0.546431064605712891 0.218753024935722351
-2.5858607292175293 5.49700021743774414 4.18534231185913086 0.10420236736536026 0.18177381157875061 -0.97780376672744751
-2.1548001766204834 1.87555313110351562 1.77430427074432373 0.653806090354919434 -0.514426350593566895 0.554890275001525879
-1.97261106967926025 2.07171869277954102 2.90555477142333984 0.188932359218597412 -0.573272526264190674 -0.797284901142120361
-1.933837890625 1.09904718399047852 2.74688363075256348 0.150542765855789185 0.790828943252563477 -0.593233942985534668
-1.75078928470611572 1.97825181484222412 1.74510204792022705 -0.121955305337905884 -0.524863243103027344 0.842404603958129883
-1.97404754161834717 2.28598785400390625 2.63420844078063965 0.200340211391448975 -0.883099079132080078 -0.424263834953308105
-5.49700021743774414 -0.80971980094909668 4.69809055328369141 -0.958653390407562256 -0.193733066320419312 -0.208449512720108032
-1.47685635089874268 1.09353458881378174 2.48556184768676758 0.106977745890617371 0.358207404613494873 -0.927492976188659668
-5.10371780395507812 0.449069023132324219 5.49700021743774414 -0.698361039161682129 -0.266810178756713867 0.664156854152679443
-1.76251339912414551 1.31060326099395752 2.94964218139648438 -0.109037987887859344 0.508957505226135254 -0.853857755661010742
-2.22082090377807617 1.41909384727478027 2.88591790199279785 0.554875373840332031 0.332220256328582764 -0.762720823287963867
-1.67428815364837646 1.16450750827789307 2.80624842643737793 -0.225793838500976562 0.706010937690734863 -0.671241939067840576
-2.0259544849395752 2.68633580207824707 5.49700021743774414 -0.0536518692970275879 0.310819953680038452 0.948953509330749512
-2.39144253730773926 2.04009461402893066 2.16448020935058594 0.850181818008422852 -0.470801889896392822 -0.235661923885345459
-3.63853073120117188 1.33009243011474609 5.49700021743774414 -0.495580166578292847 -0.0981914252042770386 0.862994194030761719
-2.26779556274414062 2.00362920761108398 2.78905749320983887 0.593139588832855225 -0.530726313591003418 -0.60540473461151123
-3.64217042922973633 5.49700021743774414 2.52458381652832031 -0.29431462287902832 0.799131155014038086 0.524183511734008789
-5.49700021743774414 2.18108367919921875 3.7982640266418457 -0.927452206611633301 0.12001444399356842 0.354159057140350342
-3.27654075622558594 5.49700021743774414 1.49913883209228516 0.0646654367446899414 0.938484847545623779 0.339211761951446533
-5.49700021743774414 5.23369121551513672 3.98383378982543945 -0.80749809741973877 -0.252686530351638794 0.533006906509399414
-2.4371647834777832 1.62895107269287109 2.00345611572265625 0.885428011417388916 -0.120182029902935028 -0.448969483375549316
-2.20450568199157715 2.11321401596069336 2.74408602714538574 0.492532551288604736 -0.623590767383575439 -0.60708010196685791
-1.55196559429168701 1.94874083995819092 2.92051911354064941 -0.398944616317749023 -0.398628592491149902 -0.825795650482177734
-2.27226376533508301 2.19650745391845703 2.46720218658447266 0.599308907985687256 -0.776431441307067871 -0.194892436265945435
-1.13287913799285889 5.49700021743774414 4.52096939086914062 0.150662079453468323 0.454715430736541748 -0.877801120281219482
-2.23684549331665039 1.88367629051208496 2.88636302947998047 0.573569595813751221 -0.342055320739746094 -0.744322657585144043
-1.4601740837097168 1.9657130241394043 2.85154914855957031 -0.525378584861755371 -0.429549276828765869 -0.734482765197753906
-2.22810673713684082 1.59860908985137939 2.93249392509460449 0.342789769172668457 -0.0738445967435836792 -0.936505317687988281
-2.08960342407226562 1.53579771518707275 2.99516892433166504 0.356785058975219727 0.163497239351272583 -0.919767916202545166
-1.99753272533416748 4.77729654312133789 5.49700021743774414 -0.0151459798216819763 -0.365477412939071655 0.930696964263916016
-1.64235925674438477 2.07238936424255371 1.65299630165100098 0.0815842077136039734 -0.858755707740783691 -0.505848526954650879
-2.71691393852233887 1.68052947521209717 0.0144436955451965332 0.810200750827789307 -0.486802607774734497 0.326493501663208008
-1.72844374179840088 1.23318493366241455 2.88855695724487305 -0.166837841272354126 0.612494587898254395 -0.772667884826660156
-2.21018338203430176 1.72956347465515137 2.94442391395568848 0.515701889991760254 -0.104503124952316284 -0.850371003150939941
-0.00300023844465613365 2.92382335662841797 1.02121305465698242 0.609668374061584473 0.766476154327392578 -0.202036634087562561
-1.33754408359527588 5.04125833511352539 5.49700021743774414 0.694242000579833984 -0.70988231897354126 0.118722714483737946
-1.9244767427444458 2.23751044273376465 2.7396547794342041 0.164609044790267944 -0.846097707748413086 -0.506973922252655029
-2.03111982345581055 2.19335484504699707 2.76537585258483887 0.256997287273406982 -0.768950939178466797 -0.58537757396697998
-1.53483223915100098 1.54854130744934082 2.96932649612426758 -0.443667441606521606 0.167937442660331726 -0.880315959453582764
-1.69060850143432617 1.95376873016357422 1.65299630165100098 0.255627810955047607 -0.851901054382324219 -0.457076549530029297
-1.48381257057189941 2.0338590145111084 2.8218235969543457 -0.502890586853027344 -0.545906782150268555 -0.670139491558074951
-2.58047986030578613 4.6872410774230957 0.00300000002607703209 0.25127565860748291 -0.000337381701683625579 -0.967915534973144531
-5.49700021743774414 0.860952496528625488 4.32421541213989258 -0.971619188785552979 -0.0797424837946891785 -0.22270454466342926
-1.19549071788787842 1.42580759525299072 2.36121821403503418 -0.251266747713088989 0.0450164936482906342 -0.966870427131652832
-4.58055210113525391 2.69011068344116211 0.00300000002607703209 -0.850541949272155762 0.494633078575134277 -0.178652152419090271
-5.49700021743774414 1.25077426433563232 4.63287258148193359 -0.6388130784034729 -0.302668362855911255 0.70732569694519043
-2.32065963745117188 1.74082887172698975 2.85595011711120605 0.668952345848083496 -0.114813506603240967 -0.734384596347808838
-3.09769010543823242 2.82372188568115234 0.616620063781738281 0.336318939924240112 0.937602877616882324 0.0882641077041625977
-5.49700021743774414 4.87315893173217773 0.0756323337554931641 -0.887426912784576416 0.449926018714904785 0.100200317800045013
-1.51212537288665771 1.32567667961120605 2.86374998092651367 -0.467085152864456177 0.481917321681976318 -0.741341471672058105
-0.00300000002607703209 1.71639955043792725 5.33362579345703125 0.199118569493293762 -0.973993360996246338 -0.108114376664161682
-1.24515807628631592 1.97451472282409668 2.51201176643371582 -0.281843125820159912 -0.361657381057739258 -0.888689160346984863
-2.36251139640808105 2.05617928504943848 2.59595274925231934 0.684325098991394043 -0.659557104110717773 -0.310939908027648926
-2.1837773323059082 1.90820479393005371 1.80429339408874512 0.649276316165924072 0.554908215999603271 0.52011263370513916
-1.58668553829193115 1.69733905792236328 3.00315380096435547 -0.357212632894515991 -0.115050509572029114 -0.926910161972045898
-1.38767635822296143 1.2402193546295166 2.05808281898498535 -0.50064462423324585 0.594206273555755615 -0.629502773284912109
-2.16533327102661133 1.51292073726654053 2.95483303070068359 0.476659506559371948 0.207335680723190308 -0.854287862777709961
-1.99044179916381836 2.31309604644775391 2.54956889152526855 0.477719485759735107 -0.578391730785369873 0.661246657371520996
-2.10423064231872559 1.20243752002716064 2.80345010757446289 0.37641376256942749 0.640659928321838379 -0.66922914981842041
-5.49700021743774414 1.13234388828277588 3.35344958305358887 -0.799212396144866943 -0.598339617252349854 0.0570022761821746826
-2.38459682464599609 2.08502435684204102 2.45235085487365723 0.692329883575439453 -0.4794883131980896 -0.539231181144714355
-1.75605654716491699 1.02454829216003418 2.11306619644165039 0.151106446981430054 0.468455284833908081 -0.870469152927398682
-2.03075456619262695 2.24991512298583984 2.03899192810058594 0.317674517631530762 -0.865282177925109863 0.387775421142578125
-3.93539237976074219 5.25127792358398438 5.49700021743774414 0.139493420720100403 -0.0913373380899429321 0.986001551151275635
-0.00300000002607703209 3.55502629280090332 1.18082547187805176 0.865835368633270264 0.280755400657653809 0.414132237434387207
-0.00300000002607703209 2.05168271064758301 2.07456302642822266 0.937410593032836914 -0.336134731769561768 0.0909663736820220947
-1.9329146146774292 2.05721020698547363 1.79257702827453613 0.606398642063140869 -0.794951200485229492 -0.0182581767439842224
-1.73414552211761475 2.03767180442810059 2.9337468147277832 -0.135042145848274231 -0.548872470855712891 -0.824925780296325684
-1.79377341270446777 1.85612523555755615 3.02515363693237305 -0.062445376068353653 -0.266243159770965576 -0.961881160736083984
-2.43729662895202637 1.5422292947769165 2.69249725341796875 0.839375138282775879 0.184797212481498718 -0.511174440383911133
-2.95890188217163086 5.49700021743774414 1.70551621913909912 -0.308686494827270508 0.951039373874664307 0.0153886647894978523
-0.00300047686323523521 3.09845852851867676 1.9843902587890625 0.797014951705932617 -0.0400958061218261719 -0.602627217769622803
-2.37818241119384766 2.0881955623626709 2.2438662052154541 0.545974850654602051 -0.299659997224807739 -0.782378077507019043
-2.43889808654785156 1.84992468357086182 2.65928840637207031 0.838847517967224121 -0.274216890335083008 -0.470255285501480103
-4.41954517364501953 1.0330357551574707 5.49700021743774414 -0.629253149032592773 -0.156409144401550293 0.761299312114715576
-0.2194976806640625 5.49699974060058594 4.89145040512084961 0.399083554744720459 0.905689537525177002 -0.143034070730209351
-1.72742247581481934 1.41917145252227783 2.9976813793182373 0.0718437135219573975 -0.0973603576421737671 -0.992652773857116699
-1.94679224491119385 1.20684349536895752 2.86838865280151367 0.163951203227043152 0.654425501823425293 -0.738137722015380859
-2.08607101440429688 1.27282392978668213 2.87643051147460938 0.354561358690261841 0.5375022292137146 -0.765099763870239258
-1.84220373630523682 1.86378133296966553 3.02478623390197754 0.120716020464897156 -0.28698316216468811 -0.950299084186553955
-1.580879807472229 1.63788938522338867 3.00114202499389648 -0.348191559314727783 0.0294757373631000519 -0.93695986270904541
-1.51969599723815918 2.75536870956420898 5.49700021743774414 0.101895987987518311 0.329534828662872314 0.938629150390625
-3.24202871322631836 4.17938327789306641 5.49700021743774414 -0.329809665679931641 0.59477919340133667 0.733119368553161621
-2.15811991691589355 2.01742386817932129 2.86624646186828613 0.438271433115005493 -0.516448020935058594 -0.735662698745727539
-1.62469398975372314 1.29039406776428223 2.89950180053710938 -0.293307036161422729 0.517426729202270508 -0.80389094352722168
-1.83908343315124512 1.77807497978210449 1.65299630165100098 -0.275962114334106445 -0.808671057224273682 -0.519515156745910645
-3.80130362510681152 3.53296089172363281 3.30299234390258789 -0.0181571245193481445 0.908602654933929443 -0.417266488075256348
-2.37866425514221191 1.70448815822601318 2.79702067375183105 0.775248825550079346 -0.0719313845038414001 -0.627547025680541992
-1.96477556228637695 1.78649306297302246 1.68393135070800781 0.442614853382110596 -0.436465203762054443 0.783320069313049316
-2.03238749504089355 1.38451921939849854 2.9648890495300293 0.290636330842971802 0.386407971382141113 -0.875339686870574951
-2.38181805610656738 2.00844788551330566 2.62529850006103516 0.759005367755889893 -0.491770416498184204 -0.42669987678527832
-1.76261651515960693 1.86780023574829102 3.01828765869140625 -0.10494174063205719 -0.299733102321624756 -0.94823378324508667
-1.78206992149353027 1.99366295337677002 2.9670872688293457 0.0180523339658975601 -0.450946509838104248 -0.892368495464324951
-2.01512289047241211 1.70531964302062988 3.03131818771362305 0.271947592496871948 -0.0516639575362205505 -0.960924267768859863
-2.39355349540710449 1.64107728004455566 2.77912521362304688 0.77701878547668457 0.0147785283625125885 -0.629303872585296631
-2.08851194381713867 1.79657638072967529 2.99519228935241699 0.357509911060333252 -0.198809623718261719 -0.912502825260162354
-2.27388596534729004 2.03549504280090332 2.75499558448791504 0.620148539543151855 -0.533308863639831543 -0.575323820114135742
-3.79104518890380859 3.16995835304260254 4.35930395126342773 -0.35740700364112854 -0.256365835666656494 -0.898073911666870117
-2.22144794464111328 2.0270073413848877 2.81279730796813965 0.342892646789550781 -0.451374918222427368 -0.823823630809783936
-2.36964225769042969 2.3878321647644043 1.65299630165100098 -0.142091989517211914 0.380837857723236084 -0.913658738136291504
-2.22315263748168945 1.85286819934844971 2.90806961059570312 0.54721367359161377 -0.276404678821563721 -0.790036499500274658
-2.26786684989929199 1.81159651279449463 1.82924854755401611 0.583599448204040527 -0.265082955360412598 0.767556309700012207
-1.41924357414245605 1.35565459728240967 2.81001830101013184 -0.608966350555419922 0.421606302261352539 -0.671869158744812012
-3.76730966567993164 2.93685150146484375 3.87557435035705566 -0.279886633157730103 0.879147946834564209 -0.385697215795516968
-1.72468113899230957 1.23465394973754883 1.65299618244171143 0.196210309863090515 0.450620204210281372 -0.870886325836181641
-0.00300000002607703209 0.00417280197143554688 3.80157780647277832 0.393805235624313354 -0.521342873573303223 0.757046222686767578
-0.00300023844465613365 -0.0346055030822753906 4.28669595718383789 0.59738391637802124 -0.541881978511810303 0.591182351112365723
-2.13366198539733887 2.25097298622131348 2.58402037620544434 0.42992103099822998 -0.839100897312164307 -0.333283066749572754
-1.97042036056518555 1.77041769027709961 3.03435349464416504 0.172559291124343872 -0.175015822052955627 -0.969325900077819824
-1.98191380500793457 1.946402907371521 2.97822284698486328 0.201056689023971558 -0.400862157344818115 -0.893804073333740234
-2.06591415405273438 1.45645463466644287 2.98252725601196289 0.332915544509887695 0.29604649543762207 -0.895278573036193848
-2.28201413154602051 1.54752266407012939 2.88284945487976074 0.62699437141418457 0.162780150771141052 -0.761827230453491211
-5.49700021743774414 0.122659206390380859 5.30840587615966797 -0.467829853296279907 -0.608855307102203369 0.640648484230041504
