ply
format ascii 1.0
element vertex 375
property float x
property float y
property float z
property float nx
property float ny
property float nz
end_header
-4.74011993408203125 5.49970006942749023 4.12087011337280273 0.513415515422821045 0.780750632286071777 -0.356136023998260498
-4.74038553237915039 5.49970006942749023 4.12098407745361328 -0.220552787184715271 0.9724884033203125 -0.0749840736389160156
-4.73996162414550781 5.49970006942749023 4.12099409103393555 -0.0813625603914260864 0.993137776851654053 -0.0840080231428146362
-5.49970006942749023 1.29141998291015625 4.63227748870849609 -0.991358399391174316 -0.120826251804828644 -0.0510827861726284027
-3.2316126823425293 2.78500485420227051 1.24541234970092773 -0.334348946809768677 0.872860968112945557 0.355421543121337891
-2.70698189735412598 1.81117284297943115 0.000300000014249235392 -0.194073960185050964 0.249650582671165466 -0.94868844747543335
-2.70654630661010742 1.81084692478179932 0.000300000014249235392 -0.208689823746681213 0.388168156147003174 -0.897649109363555908
-5.49970006942749023 2.80557537078857422 4.35124874114990234 -0.995661735534667969 -0.0092162061482667923 -0.0925888121128082275
-0.000300000014249235392 2.41512966156005859 0.639494895935058594 0.977995455265045166 -0.0213782060891389847 -0.207527905702590942
-0.615525722503662109 4.48012065887451172 0.000300000014249235392 -0.0112464064732193947 -0.0951973125338554382 -0.99539482593536377
-0.000300000014249235392 0.616514205932617188 5.4476776123046875 0.996986150741577148 -0.0775701850652694702 -0.00114810769446194172
-2.1454930305480957 2.50555038452148438 1.65029633045196533 -0.122348487377166748 0.0170512069016695023 -0.992340683937072754
-2.14539384841918945 2.50552225112915039 1.65029633045196533 0.0105844540521502495 -0.021048128604888916 -0.99972236156463623
-5.49970006942749023 3.50571823120117188 5.32033634185791016 -0.994670391082763672 0.102293297648429871 -0.012910221703350544
-5.49970006942749023 5.33469247817993164 2.79239082336425781 -0.888566076755523682 -0.0520592741668224335 -0.455785125494003296
-5.10230445861816406 5.49970006942749023 4.23696756362915039 -0.141548782587051392 0.988210916519165039 -0.0583353377878665924
-0.000300000014249235392 1.27595424652099609 4.97996902465820312 0.996959805488586426 -0.064420945942401886 -0.0438289791345596313
-4.68697977066040039 5.08482551574707031 5.49970006942749023 -0.745935261249542236 -0.351275742053985596 0.565849781036376953
-3.80614519119262695 5.49970006942749023 4.83174514770507812 -0.452223002910614014 0.882767319679260254 0.127342402935028076
-3.80398082733154297 5.49970006942749023 4.83102655410766602 -0.0632069557905197144 0.996084690093994141 -0.0618075579404830933
-1.74315547943115234 5.49970006942749023 0.499200582504272461 0.125585272908210754 0.987857341766357422 -0.0914669409394264221
-1.74342656135559082 5.49970006942749023 0.498945713043212891 0.0146248647943139076 0.982194066047668457 -0.187298640608787537
-1.27333939075469971 5.49970006942749023 4.70628929138183594 0.104561001062393188 0.993328690528869629 -0.0486308299005031586
-3.47015953063964844 5.33708095550537109 0.000300000014249235392 -0.537614703178405762 -0.0753625631332397461 -0.839815974235534668
-2.31006622314453125 5.49970006942749023 1.81211996078491211 0.0438511334359645844 0.980472087860107422 -0.191706597805023193
-5.49970006942749023 0.480255603790283203 4.07461452484130859 -0.989092528820037842 -0.112200409173965454 -0.0954300686717033386
-5.49970006942749023 2.14805388450622559 3.94351768493652344 -0.988534212112426758 -0.0650692060589790344 -0.13625749945640564
-5.49970006942749023 5.454559326171875 4.44559192657470703 -0.990909457206726074 -0.0212101060897111893 -0.132847592234611511
-1.47885966300964355 2.44050931930541992 0.759504199028015137 -0.216030120849609375 -0.801794886589050293 -0.557185649871826172
-0.745995044708251953 5.49970006942749023 5.07257938385009766 -0.155394971370697021 0.889431595802307129 -0.429841548204421997
-0.745329618453979492 5.49970006942749023 5.07392597198486328 0.120512828230857849 0.99250483512878418 -0.0202650539577007294
-0.257773160934448242 5.49970006942749023 4.19944000244140625 0.447077095508575439 0.880688965320587158 0.156554460525512695
-0.257845640182495117 5.49970006942749023 4.19947195053100586 0.248099729418754578 0.93162381649017334 0.265562832355499268
-5.345733642578125 5.49970006942749023 2.89818215370178223 -0.124990984797477722 0.981790065765380859 -0.143057554960250854
-0.000300000014249235392 2.17331027984619141 4.58708572387695312 0.994272291660308838 -0.0714275985956192017 -0.0795027390122413635
-0.000300000014249235392 4.0765080451965332 3.87990522384643555 0.993171930313110352 0.0428826436400413513 -0.108491897583007812
-0.000300000014249235392 2.89286398887634277 3.17522120475769043 0.986252188682556152 0.0135875539854168892 -0.164687648415565491
-2.2181999683380127 5.49970006942749023 5.39448928833007812 0.103585757315158844 0.994605779647827148 -0.00540541205555200577
-4.26798486709594727 5.49970006942749023 5.3440093994140625 -0.108009077608585358 0.994120538234710693 -0.00763143645599484444
-3.05033063888549805 3.36406087875366211 3.3002922534942627 0.527742922306060791 -0.447285175323486328 -0.722096562385559082
-3.05055427551269531 3.36425471305847168 3.3002922534942627 -0.0143998069688677788 0.0269219707697629929 -0.99953383207321167
-5.49970006942749023 3.91964578628540039 5.43012714385986328 -0.992184937000274658 0.124759040772914886 -0.00205650716088712215
-2.2204277515411377 4.33397245407104492 0.000300000014249235392 0.0152318375185132027 0.0486685521900653839 -0.998698770999908447
-5.49970006942749023 2.8863213062286377 2.65118646621704102 -0.989138126373291016 0.0328509360551834106 -0.143270343542098999
-5.49970006942749023 0.817208409309387207 5.02023172378540039 -0.992359638214111328 -0.115704476833343506 -0.0428346395492553711
-1.46742856502532959 5.49970006942749023 4.85398578643798828 -0.000215204083360731602 0.866592884063720703 -0.499015778303146362
-1.46736741065979004 5.49970006942749023 4.8544316291809082 0.0822290778160095215 0.995061039924621582 -0.0556055866181850433
-3.85344052314758301 4.20332527160644531 5.49970006942749023 -0.0413211695849895477 0.180326879024505615 0.982738375663757324
-5.49970006942749023 -0.452457427978515625 4.7725987434387207 -0.987897038459777832 -0.150118768215179443 -0.0390338748693466187
-5.49970006942749023 0.589041233062744141 3.04802179336547852 -0.98914790153503418 -0.0626078099012374878 -0.132915794849395752
-0.375355720520019531 5.49970006942749023 3.15363597869873047 0.111886665225028992 0.987805485725402832 -0.108266189694404602
-5.49970006942749023 3.14658474922180176 5.18059253692626953 -0.998037457466125488 0.0569843985140323639 -0.0259582195430994034
-0.000300000014249235392 2.38416576385498047 2.97655320167541504 0.985807299613952637 -0.0497685745358467102 -0.160333797335624695
-0.000300000014249235392 5.11481761932373047 5.21625995635986328 0.991728365421295166 0.127236202359199524 -0.0169036686420440674
-1.33170473575592041 3.24788570404052734 0.000300000014249235392 0.276404470205307007 0.154108136892318726 -0.948604822158813477
-1.33321273326873779 3.24711489677429199 0.000300000014249235392 -0.0856788083910942078 -0.0195460952818393707 -0.996130943298339844
-1.3330543041229248 3.24721050262451172 0.000300000014249235392 0.0292729996144771576 0.0497717410326004028 -0.998331546783447266
-0.000300000014249235392 -0.347229242324829102 5.20896387100219727 0.990339696407318115 -0.137721911072731018 -0.0161212421953678131
-0.000300000014249235392 2.26333475112915039 4.42646694183349609 0.996055722236633301 -0.045729219913482666 -0.0760384872555732727
-2.88415288925170898 3.0157628059387207 3.3002924919128418 -0.0644577369093894958 0.0763977020978927612 -0.994991719722747803
-5.49970006942749023 3.85083389282226562 4.405487060546875 -0.992643892765045166 0.104638442397117615 -0.0608997121453285217
-5.49970006942749023 3.62457442283630371 4.90212440490722656 -0.991155028343200684 0.0637526288628578186 0.116392157971858978
-0.401640892028808594 3.36605310440063477 0.000300000014249235392 0.114484891295433044 0.0200572460889816284 -0.993222475051879883
-5.49970006942749023 2.29120302200317383 4.84211015701293945 -0.998640894889831543 -0.0010232352651655674 -0.0521093942224979401
-3.06498813629150391 5.49970006942749023 4.23142671585083008 -0.381030857563018799 0.0942575410008430481 -0.919745087623596191
-3.0638124942779541 5.49970006942749023 4.23432636260986328 -0.120760820806026459 0.988616049289703369 -0.0897498726844787598
-3.0635373592376709 5.49970006942749023 4.23430728912353516 -0.00838876329362392426 0.994796991348266602 -0.10153130441904068
-0.000300000014249235392 5.21226024627685547 5.26526021957397461 0.99235844612121582 0.122873261570930481 -0.0112553909420967102
-4.4816441535949707 2.89969730377197266 5.49970006942749023 -0.620544612407684326 0.285462141036987305 0.730367183685302734
-0.860181570053100586 5.49970006942749023 1.45242929458618164 0.187940731644630432 0.965190410614013672 -0.181894540786743164
-0.860655546188354492 5.49970006942749023 1.45305418968200684 -0.379951179027557373 0.453174471855163574 0.806393146514892578
-0.860386133193969727 5.49970006942749023 1.45246970653533936 0.0586019866168498993 0.984274387359619141 -0.166641935706138611
-2.90288734436035156 3.3814396858215332 3.3002924919128418 -0.0489283464848995209 0.0501207634806632996 -0.997543931007385254
-2.3787229061126709 5.49970006942749023 3.46144628524780273 0.993997752666473389 0.109376184642314911 0.00231948727741837502
-2.38137531280517578 5.49970006942749023 3.46142935752868652 0.237344056367874146 0.970829248428344727 -0.0340329557657241821
-2.38726234436035156 5.49970006942749023 3.47889900207519531 -0.193690299987792969 0.724229574203491211 0.661797165870666504
-2.38225317001342773 5.49970006942749023 3.46139621734619141 -0.152650639414787292 0.988270998001098633 0.00426032301038503647
-2.3820188045501709 5.49970006942749023 3.46120071411132812 0.0130448592826724052 0.99075162410736084 -0.135059386491775513
-2.22759866714477539 4.8337249755859375 5.49970006942749023 0.283284664154052734 -0.101837672293186188 0.953613519668579102
-4.08022022247314453 5.49970006942749023 3.09244775772094727 -0.0410180911421775818 0.983007490634918213 0.178923621773719788
-4.08028364181518555 5.49970006942749023 3.09159517288208008 -0.0671503767371177673 0.985040843486785889 -0.158698678016662598
-3.94829320907592773 5.49970006942749023 3.68968820571899414 -0.0748335793614387512 0.941169261932373047 -0.329545557498931885
-3.94827747344970703 5.49970006942749023 3.6901090145111084 -0.0803544148802757263 0.991456866264343262 -0.102744258940219879
-0.000300000014249235392 -0.713466644287109375 3.07268357276916504 0.985113263130187988 -0.123126208782196045 -0.119965225458145142
-5.49970006942749023 1.91628837585449219 2.18556714057922363 -0.984323501586914062 0.00696034729480743408 -0.176234617829322815
-0.000300000014249235392 1.71828222274780273 3.53860664367675781 0.990169942378997803 0.000200717884581536055 -0.139869138598442078
-5.49970006942749023 1.07213354110717773 2.0834197998046875 -0.984960317611694336 -0.072434060275554657 -0.156864374876022339
-0.0948495864868164062 5.49970006942749023 3.93297910690307617 0.11652962863445282 0.99028468132019043 -0.0758751556277275085
-5.49970006942749023 1.80409049987792969 4.5024266242980957 -0.995366096496582031 -0.0226895567029714584 -0.0934422090649604797
-2.67447781562805176 3.05412936210632324 2.84988260269165039 -0.489473283290863037 -0.331481009721755981 -0.806558191776275635
-2.67450428009033203 3.0542151927947998 2.85024166107177734 -0.929834544658660889 -0.292753517627716064 -0.222941726446151733
-3.69150590896606445 3.26194477081298828 3.3002922534942627 -0.133013337850570679 0.0455678291618824005 -0.990066170692443848
-0.000300000014249235392 0.79136812686920166 0.583502531051635742 0.978780925273895264 -0.0372690148651599884 -0.201491698622703552
-5.49970006942749023 0.55069422721862793 5.20567941665649414 -0.991849720478057861 -0.126209735870361328 -0.0174656864255666733
-0.000300000014249235392 3.96658182144165039 3.88936662673950195 0.993522167205810547 0.0384392924606800079 -0.106939069926738739
-0.700371742248535156 5.49970006942749023 4.33702659606933594 0.108713142573833466 0.990198969841003418 -0.0876776352524757385
-0.000300000014249235392 4.15130472183227539 4.8932037353515625 0.996979594230651855 0.0699698179960250854 -0.0336999483406543732
-0.000300000014249235392 5.42896461486816406 2.64717698097229004 0.995771408081054688 -0.0917047411203384399 0.00542900199070572853
-5.49970006942749023 2.28046464920043945 5.0808262825012207 -0.996953487396240234 -0.073339805006980896 -0.0265493951737880707
-5.49970006942749023 1.2706608772277832 3.7842864990234375 -0.98891150951385498 -0.115602709352970123 -0.0932196006178855896
-3.49285387992858887 3.03705549240112305 3.3002924919128418 -0.417142748832702637 0.177317604422569275 -0.891375541687011719
-3.31452775001525879 2.91733837127685547 3.3002924919128418 -0.0102959582582116127 0.997289061546325684 -0.0728593394160270691
-3.31429624557495117 2.91323280334472656 3.3002924919128418 0.533556103706359863 -0.00679680798202753067 -0.845737338066101074
-3.31410646438598633 2.91436648368835449 3.3002924919128418 0.504222631454467773 0.836847603321075439 -0.213179558515548706
-3.31479120254516602 2.91315555572509766 3.3002924919128418 0.080045454204082489 -0.113352812826633453 -0.990325093269348145
-0.000300000014249235392 1.74315059185028076 3.37674713134765625 0.990772426128387451 -0.0781968608498573303 -0.110703021287918091
-0.873803019523620605 5.49970006942749023 5.13032913208007812 0.0861026868224143982 0.996083974838256836 -0.0200742296874523163
-0.000300000014249235392 1.79430079460144043 4.55631542205810547 0.99287879467010498 -0.100068800151348114 -0.0646366849541664124
-0.000300000014249235392 1.21559929847717285 4.29186344146728516 0.99487602710723877 -0.0299479309469461441 -0.096564464271068573
-0.344378948211669922 5.49970006942749023 4.62515735626220703 0.4913196861743927 0.750433802604675293 -0.442101925611495972
-0.345212459564208984 5.49970006942749023 4.62596654891967773 0.148163452744483948 0.987432897090911865 -0.0549885369837284088
-5.49970006942749023 3.41342926025390625 5.01050090789794922 -0.99789506196975708 0.0530944466590881348 -0.0372337475419044495
-0.000300000014249235392 4.14138936996459961 5.16356372833251953 0.994026422500610352 0.107490472495555878 -0.0189007576555013657
-3.21039676666259766 5.49970006942749023 0.949285149574279785 -0.0553463734686374664 0.981569170951843262 -0.182917132973670959
-5.34623098373413086 5.49970006942749023 4.15383529663085938 -0.615602314472198486 0.766455888748168945 0.18324589729309082
-5.34533262252807617 5.49970006942749023 4.15349006652832031 -0.104453444480895996 0.991873264312744141 -0.0726423412561416626
-5.49970006942749023 5.48874855041503906 5.45697212219238281 -0.488236308097839355 -0.292074441909790039 0.822385430335998535
-5.48181343078613281 5.49970006942749023 5.42622947692871094 -0.357908755540847778 0.89170074462890625 0.277076005935668945
-3.21831059455871582 5.49970006942749023 1.66738784313201904 -0.645563244819641113 0.72574150562286377 0.237796679139137268
-3.21422553062438965 5.49970006942749023 1.66583168506622314 -0.435233652591705322 0.893073499202728271 -0.113979518413543701
-3.21411395072937012 5.49970006942749023 1.66591024398803711 -0.113235712051391602 0.984725832939147949 0.132259592413902283
-5.49970006942749023 4.73327445983886719 0.01140594482421875 -0.78226006031036377 -0.26232638955116272 -0.565025746822357178
-3.21456456184387207 5.49970006942749023 1.66193461418151855 -0.129676640033721924 0.727204680442810059 -0.674060225486755371
-3.21396946907043457 5.49970006942749023 1.66510319709777832 -0.0543181709945201874 0.981362342834472656 -0.184329822659492493
-5.49970006942749023 0.162757635116577148 4.10998868942260742 -0.986224889755249023 -0.132928341627120972 -0.0984406396746635437
-5.49970006942749023 3.26365852355957031 4.62917709350585938 -0.997555732727050781 -0.00972150452435016632 -0.0691953748464584351
-3.02515673637390137 3.92129015922546387 3.3002922534942627 0.0996580570936203003 0.204101115465164185 -0.973863899707794189
-3.0252540111541748 3.92115497589111328 3.3002922534942627 0.0363621227443218231 0.119638703763484955 -0.992151319980621338
-0.000300000014249235392 3.78198385238647461 4.80230522155761719 0.99481654167175293 0.0779921114444732666 -0.0652475878596305847
-0.000300000014249235392 1.50185561180114746 3.15612959861755371 0.985348880290985107 -0.0817834436893463135 -0.149662718176841736
-5.49970006942749023 0.662619590759277344 5.13798904418945312 -0.991285920143127441 -0.128506332635879517 -0.0289510153234004974
-5.49970006942749023 4.61159229278564453 5.42343997955322266 -0.994171679019927979 0.107743442058563232 -0.0037270763423293829
-5.49970006942749023 0.558520078659057617 3.61128568649291992 -0.984700202941894531 -0.131324261426925659 -0.114539802074432373
-2.66234707832336426 5.49970006942749023 3.33370780944824219 0.317453444004058838 0.94488990306854248 -0.080038905143737793
-2.66749739646911621 5.49970006942749023 3.33472585678100586 0.0309633947908878326 0.991678774356842041 -0.124957539141178131
-2.92572546005249023 3.67619156837463379 3.3002922534942627 0.0516848079860210419 0.126795291900634766 -0.990581393241882324
-0.000300000014249235392 0.732414007186889648 2.31116366386413574 0.983406424522399902 -0.10269155353307724 -0.149553075432777405
-0.000300000014249235392 3.37666463851928711 4.06359672546386719 0.989241242408752441 0.11461050808429718 -0.0909182578325271606
-1.295501708984375 4.16015720367431641 5.49970006942749023 0.258282780647277832 -0.610874593257904053 0.7484130859375
-1.86197805404663086 5.49970006942749023 3.85911035537719727 -0.263392478227615356 0.739693105220794678 0.619256377220153809
-1.86134517192840576 5.49970006942749023 3.85755181312561035 0.00349258119240403175 0.994608044624328613 -0.103646017611026764
-0.000300000014249235392 1.58871018886566162 2.06482052803039551 0.982807040214538574 -0.0725332498550415039 -0.169791623950004578
-0.730167150497436523 5.49970006942749023 4.802490234375 0.113010257482528687 0.992627143859863281 -0.0438163429498672485
-5.49970006942749023 1.48286139965057373 1.75138449668884277 -0.978684842586517334 -0.0507618077099323273 -0.198995336890220642
-5.49970006942749023 1.2709200382232666 4.64435958862304688 -0.992695629596710205 -0.0969746261835098267 -0.0717722252011299133
-0.000300000014249235392 4.28009700775146484 4.6108851432800293 0.993735313415527344 0.0941168889403343201 -0.0602667666971683502
-2.97684073448181152 2.08536243438720703 0.000300000014249235392 -0.12433449923992157 0.866276085376739502 -0.48384559154510498
-2.97677373886108398 2.08481621742248535 0.000300000014249235392 -0.033327791839838028 -0.0308439061045646667 -0.998968362808227539
-0.000300000014249235392 1.08512699604034424 3.69406223297119141 0.986331284046173096 -0.129291236400604248 -0.102148756384849548
-5.49970006942749023 2.76437926292419434 4.9749603271484375 -0.998938202857971191 0.00322235631756484509 -0.0459554195404052734
-3.68866801261901855 2.64322233200073242 2.98388528823852539 -0.354760199785232544 0.911867618560791016 -0.20650075376033783
-0.000300000014249235392 2.0134575366973877 4.9695134162902832 0.998411178588867188 0.0206092465668916702 -0.0524428598582744598
-4.70893478393554688 5.49970006942749023 4.94087505340576172 0.0956373587250709534 0.73872143030166626 -0.667191147804260254
-4.70927190780639648 5.49970006942749023 4.94249534606933594 -0.136530235409736633 0.990259647369384766 -0.0272995438426733017
-5.49970006942749023 2.47405457496643066 3.41917800903320312 -0.985758006572723389 0.013028828427195549 -0.167664185166358948
-0.000300000014249235392 0.411608457565307617 4.56124353408813477 0.99178004264831543 -0.117629833519458771 -0.0503541305661201477
-0.000300000014249235392 1.26821303367614746 3.13127541542053223 0.989444613456726074 -0.0569764375686645508 -0.133239865303039551
-5.49970006942749023 0.37087702751159668 5.26925516128540039 -0.982951045036315918 -0.183443605899810791 -0.0124705461785197258
-2.38134169578552246 5.27289772033691406 0.000300000014249235392 -0.0155568690970540047 0.0911379307508468628 -0.995716691017150879
-1.83270573616027832 1.46042990684509277 3.01990985870361328 -0.0172976106405258179 0.301879942417144775 -0.95318901538848877
-5.49970006942749023 1.82551264762878418 5.13942146301269531 -0.994789600372314453 -0.0987930819392204285 -0.0251683183014392853
-3.71437907218933105 0.17542719841003418 0.000300000014249235392 0.122742705047130585 0.391861140727996826 -0.911799907684326172
-3.71521234512329102 0.174609899520874023 0.000300000014249235392 -0.52801048755645752 0.0553917400538921356 -0.847429394721984863
-3.71469616889953613 0.174502372741699219 0.000300000014249235392 -0.0413748584687709808 -0.0682248622179031372 -0.996811568737030029
-5.49970006942749023 2.44218087196350098 2.37285709381103516 -0.983193755149841309 -0.0149184791371226311 -0.181954443454742432
-2.75537633895874023 5.49970006942749023 5.46059322357177734 -0.0376665331423282623 0.999290227890014648 -0.000421640899730846286
-3.43578958511352539 2.82317566871643066 3.3002924919128418 0.349694103002548218 -0.183476522564888 -0.918722033500671387
-1.01019823551177979 5.49970006942749023 4.37426090240478516 0.316361069679260254 0.944958746433258057 0.083477899432182312
-1.01459038257598877 5.49970006942749023 4.37289285659790039 0.0934532433748245239 0.993582963943481445 -0.0637125745415687561
-3.62613391876220703 1.53666782379150391 0.000300000014249235392 -0.264478892087936401 0.182695567607879639 -0.946928262710571289
-3.62452888488769531 1.53537702560424805 0.000300000014249235392 -0.0211186911910772324 -0.0642179399728775024 -0.997712373733520508
-2.95673680305480957 3.71773433685302734 3.3002922534942627 0.37991487979888916 -0.515641450881958008 -0.767970383167266846
-2.95700502395629883 3.71853923797607422 3.3002922534942627 0.384228765964508057 -0.00211424985900521278 -0.923235416412353516
-3.2021329402923584 3.72359037399291992 3.3002922534942627 -0.0278334207832813263 0.153022035956382751 -0.987830638885498047
-5.49970006942749023 4.25412225723266602 3.88608455657958984 -0.992954373359680176 0.0662181898951530457 -0.0982687398791313171
-5.49970006942749023 1.74097108840942383 1.56415319442749023 -0.985449850559234619 -0.0420078672468662262 -0.164692983031272888
-1.89493107795715332 1.77050018310546875 3.04186224937438965 0.0627882406115531921 -0.183917447924613953 -0.980934262275695801
-5.49970006942749023 5.03223323822021484 3.57224392890930176 -0.989806890487670898 0.101646013557910919 -0.0997520685195922852
-5.49970006942749023 2.83873081207275391 2.58516573905944824 -0.987312793731689453 0.0444146022200584412 -0.152448803186416626
-0.000300000014249235392 3.26979541778564453 3.92596840858459473 0.991988658905029297 0.0879660770297050476 -0.0906663388013839722
-0.000300000014249235392 2.60490751266479492 3.57095670700073242 0.990688323974609375 0.0504746139049530029 -0.126447111368179321
-5.49970006942749023 1.79773092269897461 3.6807558536529541 -0.993674755096435547 -0.0152642363682389259 -0.111253954470157623
-3.02534103393554688 5.49970006942749023 5.42445564270019531 0.0337043404579162598 0.99942481517791748 -0.00374460942111909389
-5.04817104339599609 5.49970006942749023 4.57755708694458008 -0.121940866112709045 0.991180658340454102 -0.0518781840801239014
-3.52088809013366699 5.49970006942749023 5.29675579071044922 0.275728762149810791 0.832056403160095215 0.481306284666061401
-3.52062106132507324 5.49970006942749023 5.29714107513427734 -0.680040895938873291 0.519254386425018311 0.517609059810638428
-3.52014970779418945 5.49970006942749023 5.29697179794311523 0.232393071055412292 0.892119169235229492 0.387449115514755249
-3.52084875106811523 5.49970006942749023 5.29581356048583984 -0.0131621137261390686 0.999775469303131104 -0.0166039615869522095
-3.84028005599975586 2.5961906909942627 2.43298959732055664 -0.348076581954956055 0.899475216865539551 -0.26417231559753418
-3.84058928489685059 2.59609484672546387 2.43306875228881836 -0.664486944675445557 0.733548521995544434 -0.142701104283332825
-3.83954501152038574 2.59641885757446289 2.43289828300476074 -0.272561043500900269 0.906287252902984619 -0.323038339614868164
-3.83913564682006836 2.59654569625854492 2.43456315994262695 0.7205391526222229 0.685403048992156982 -0.105099894106388092
-3.83972930908203125 2.59636163711547852 2.43456792831420898 -0.336346715688705444 0.916450262069702148 -0.216771066188812256
-5.49970006942749023 0.717065334320068359 3.69797873497009277 -0.989464461803436279 -0.0754595473408699036 -0.123554788529872894
-1.4366917610168457 2.19010615348815918 1.65029633045196533 0.0615374185144901276 -0.0631609857082366943 -0.996104240417480469
-0.000300000014249235392 1.65742456912994385 4.0498042106628418 0.992586851119995117 -0.0816202759742736816 -0.0900520756840705872
-2.4717254638671875 2.47809362411499023 1.65029633045196533 0.239856883883476257 -0.381149411201477051 -0.892857074737548828
-2.47416019439697266 2.4815819263458252 1.65029633045196533 -0.585704028606414795 0.804114341735839844 -0.101739488542079926
-2.47243881225585938 2.4792177677154541 1.65029633045196533 -0.0179528221487998962 0.0219626687467098236 -0.999597549438476562
-5.49970006942749023 1.88779783248901367 1.51778781414031982 -0.979389071464538574 -0.0596598051488399506 -0.192970246076583862
-0.565011024475097656 5.49970006942749023 5.09977483749389648 -0.433569401502609253 0.301739633083343506 0.849099993705749512
-0.564846992492675781 5.49970006942749023 5.09887552261352539 -0.658608436584472656 0.739965140819549561 -0.136698365211486816
-0.563397884368896484 5.49970006942749023 5.09933614730834961 -0.150177702307701111 0.972755908966064453 0.176613911986351013
-0.000300000014249235392 3.94744205474853516 1.76000404357910156 0.981768488883972168 0.0363622903823852539 -0.186569675803184509
-1.57239603996276855 5.49970006942749023 2.77363991737365723 0.0425664857029914856 0.984725534915924072 -0.16883009672164917
-0.000300000014249235392 5.04438924789428711 4.46794891357421875 0.990209341049194336 0.138604819774627686 0.0165496226400136948
-5.49970006942749023 3.53379654884338379 4.76250267028808594 -0.99613499641418457 0.0713030770421028137 -0.0512918010354042053
-1.9070887565612793 3.43809127807617188 5.49970006942749023 0.257365494966506958 0.0148110799491405487 0.966200590133666992
-3.49320721626281738 4.43204879760742188 0.906678736209869385 0.361075073480606079 -0.81430518627166748 -0.454457700252532959
-3.49328827857971191 4.43202352523803711 0.906762003898620605 0.132544338703155518 -0.964852809906005859 -0.226916223764419556
-2.99459218978881836 5.49970006942749023 2.03574538230895996 -0.351974427700042725 0.931285440921783447 0.0939220786094665527
-2.99447274208068848 5.49970006942749023 2.0356602668762207 0.0201941598206758499 0.983499765396118164 -0.179778411984443665
-0.000300000014249235392 4.60535573959350586 4.72012805938720703 0.993440806865692139 0.0989345759153366089 -0.05733519047498703
-2.10172176361083984 5.49970006942749023 3.21085906028747559 0.0358974896371364594 0.989888668060302734 -0.137228623032569885
-0.208574771881103516 3.36200642585754395 0.000300000014249235392 0.399950683116912842 0.0443461351096630096 -0.91546320915222168
-0.000300000014249235392 4.69203948974609375 0.0892109870910644531 0.732001721858978271 0.679785609245300293 0.0454409942030906677
-0.209260702133178711 3.36199760437011719 0.000300000014249235392 0.0951540917158126831 0.058859802782535553 -0.993720829486846924
-5.49970006942749023 2.90120363235473633 3.88584661483764648 -0.989044547080993652 0.0106437532231211662 -0.147232562303543091
-0.000300000014249235392 -0.372445106506347656 2.55402612686157227 0.971638917922973633 -0.215779364109039307 -0.0967317968606948853
-2.95127367973327637 2.87196874618530273 2.65249490737915039 -0.304176986217498779 0.92927241325378418 -0.209592506289482117
-0.000300000014249235392 5.18187713623046875 5.00076866149902344 0.987099945545196533 0.157114878296852112 -0.030798519030213356
-1.83536076545715332 5.49970006942749023 4.42353725433349609 0.0457806326448917389 0.995227694511413574 -0.0861730724573135376
-4.2012176513671875 1.56673514842987061 5.49970006942749023 -0.0626527070999145508 -0.492339730262756348 0.868145287036895752
-4.20129251480102539 1.56736123561859131 5.49970006942749023 -0.173849001526832581 0.189373299479484558 0.966392397880554199
-4.20132827758789062 1.56703400611877441 5.49970006942749023 -0.205967620015144348 -0.0257514510303735733 0.978219866752624512
-3.73163032531738281 3.02817368507385254 3.3002924919128418 -0.03323407843708992 -0.420065611600875854 -0.906884908676147461
-3.73169875144958496 3.02852344512939453 3.3002924919128418 -0.124858208000659943 -0.0835255235433578491 -0.988652527332305908
-3.73170137405395508 3.02855253219604492 3.3002924919128418 -0.134308695793151855 0.0124746253713965416 -0.990860998630523682
-5.49970006942749023 3.48534607887268066 5.18834877014160156 -0.999371647834777832 0.0299798119813203812 -0.0189046841114759445
-5.49970006942749023 1.66773450374603271 4.06237173080444336 -0.989965200424194336 -0.0890058428049087524 -0.109757237136363983
-3.75097060203552246 5.49970006942749023 2.69273686408996582 0.954256713390350342 0.0468985997140407562 0.295287400484085083
-3.75695133209228516 5.49970006942749023 2.69069790840148926 0.34220770001411438 0.839855968952178955 -0.421349942684173584
-3.7573699951171875 5.49970006942749023 2.69104766845703125 -0.0737443342804908752 0.988694906234741211 -0.130552604794502258
-1.43235671520233154 5.49970006942749023 5.340423583984375 0.372361689805984497 0.785183072090148926 0.494807302951812744
-1.43235278129577637 5.49970006942749023 5.3399658203125 0.0825684964656829834 0.996545732021331787 -0.00888572074472904205
-0.000300000014249235392 2.1512913703918457 3.92754173278808594 0.993996977806091309 -0.0563416667282581329 -0.0937843248248100281
-3.36722850799560547 -0.0436170101165771484 0.000300000014249235392 -0.0147157181054353714 -0.107583507895469666 -0.994087100028991699
-5.11745309829711914 0.999868512153625488 0.000300000014249235392 -0.0842248126864433289 -0.0397521704435348511 -0.995653510093688965
-5.49970006942749023 0.202432394027709961 5.33833217620849609 -0.987222194671630859 -0.159115493297576904 -0.00863468647003173828
-0.365350484848022461 5.49970006942749023 0.332579135894775391 0.0955802649259567261 0.979947090148925781 -0.174837201833724976
-5.49970006942749023 1.77316582202911377 2.50479960441589355 -0.985956072807312012 -0.0254126153886318207 -0.165059641003608704
-0.000300000014249235392 3.54205918312072754 4.36187458038330078 0.989059090614318848 0.117430701851844788 -0.0892859846353530884
-4.09256553649902344 5.49970006942749023 5.44552373886108398 -0.108092315495014191 0.994138956069946289 -0.00195501465350389481
-3.6007390022277832 5.49970006942749023 5.22105598449707031 -0.14393971860408783 0.836198925971984863 0.529199957847595215
-3.60059762001037598 5.49970006942749023 5.22046899795532227 -0.018429584801197052 0.999550104141235352 -0.0236591864377260208
-0.386658430099487305 5.49970006942749023 2.84393596649169922 -0.585528016090393066 0.730412960052490234 -0.351644307374954224
-0.383808374404907227 5.49970006942749023 2.84446811676025391 0.712375998497009277 0.291352450847625732 -0.638462364673614502
-0.384515762329101562 5.49970006942749023 2.84508538246154785 0.0853406116366386414 0.987559318542480469 -0.132073521614074707
-3.66866874694824219 4.68679094314575195 0.000300000014249235392 -0.140580922365188599 -0.130702987313270569 -0.981403946876525879
-2.79560279846191406 5.49970006942749023 4.12097549438476562 0.238773837685585022 0.473537921905517578 0.847790539264678955
-2.7957463264465332 5.49970006942749023 4.12041616439819336 0.0256386082619428635 0.996917009353637695 -0.0741550251841545105
-5.49970006942749023 2.28780198097229004 4.71843242645263672 -0.995459675788879395 -0.0345839858055114746 -0.0886776596307754517
-1.56672966480255127 5.49970006942749023 3.31078386306762695 0.0293247438967227936 0.991753160953521729 -0.124762438237667084
-0.0438628196716308594 5.49970006942749023 1.85795283317565918 0.0980983972549438477 0.984837770462036133 -0.143077477812767029
-5.49970006942749023 1.43584966659545898 1.9729083776473999 -0.982193470001220703 -0.0951772332191467285 -0.161978736519813538
-5.49970006942749023 1.16303789615631104 5.20679473876953125 -0.992044448852539062 -0.124820254743099213 -0.0163618884980678558
-5.49970006942749023 2.31654620170593262 5.17067718505859375 -0.999812185764312744 0.00686931144446134567 -0.0181208699941635132
-2.33947992324829102 5.06145191192626953 0.000299761595670133829 0.121693871915340424 -0.153606221079826355 -0.980609714984893799
-2.68667864799499512 5.49970006942749023 2.7976996898651123 0.00366938440129160881 0.991634964942932129 -0.129020869731903076
-2.01890969276428223 4.78732109069824219 0.000300000014249235392 -0.425787270069122314 0.717188358306884766 -0.551675617694854736
-2.01865458488464355 4.78690195083618164 0.000300000014249235392 0.0782003477215766907 -0.0965567603707313538 -0.992250680923461914
-2.59462714195251465 5.49970006942749023 3.38883399963378906 0.969080805778503418 0.231247082352638245 0.0860646441578865051
-2.59586811065673828 5.49970006942749023 3.38868284225463867 0.0528313405811786652 0.990064024925231934 -0.130314648151397705
-1.2971726655960083 3.13497543334960938 0.000300000014249235392 -0.0424514897167682648 0.292430073022842407 -0.955344200134277344
-1.29692173004150391 3.13395380973815918 0.000300000014249235392 0.0407332926988601685 0.0269397925585508347 -0.998806774616241455
-1.91701877117156982 1.2632896900177002 2.91607403755187988 0.107756122946739197 0.55172276496887207 -0.827037334442138672
-3.72403979301452637 5.49970006942749023 0.00124692916870117188 0.41637653112411499 0.909189105033874512 0.00237727444618940353
-3.88983154296875 5.40858745574951172 0.000300000014249235392 0.074599340558052063 -0.0184063296765089035 -0.9970436692237854
-4.25950908660888672 5.49970006942749023 1.57867145538330078 -0.154433697462081909 0.912410318851470947 0.379021793603897095
-4.25928449630737305 5.49970006942749023 1.57759761810302734 -0.0690939575433731079 0.979547679424285889 -0.188976839184761047
-0.000300000014249235392 -0.88452601432800293 1.93458676338195801 0.981176316738128662 -0.140510782599449158 -0.132475122809410095
-0.000300000014249235392 3.64125514030456543 0.978384137153625488 0.980230450630187988 0.0241228975355625153 -0.196383103728294373
-3.79067897796630859 5.49970006942749023 5.20505523681640625 -0.0351599603891372681 0.999212145805358887 -0.0184035934507846832
-1.26012420654296875 5.49970006942749023 2.36760282516479492 -0.0812018066644668579 0.971971035003662109 -0.220632001757621765
-1.25984537601470947 5.49970006942749023 2.36772990226745605 0.109605051577091217 0.983866572380065918 -0.141397446393966675
-0.321652412414550781 5.49970006942749023 4.45401906967163086 0.881463468074798584 0.425181865692138672 -0.205529987812042236
-0.322225093841552734 5.49970006942749023 4.45414638519287109 0.16109040379524231 0.985283970832824707 -0.0571438632905483246
-0.000300000014249235392 2.49200868606567383 4.89439630508422852 0.998826503753662109 -0.0274235941469669342 -0.0399181023240089417
-0.000300000014249235392 3.2368161678314209 3.05832982063293457 0.986802458763122559 0.0909341275691986084 -0.133984208106994629
-0.000300000014249235392 5.00181436538696289 1.1876990795135498 0.981359720230102539 0.0670806467533111572 -0.180092334747314453
-2.01821494102478027 4.63245773315429688 0.000300000014249235392 0.203074038028717041 0.211900830268859863 -0.955959677696228027
-2.01846075057983398 4.63239336013793945 0.000300000014249235392 -0.112237736582756042 0.137551650404930115 -0.984114885330200195
-2.01724648475646973 4.63325786590576172 0.000300000014249235392 0.403742074966430664 0.530974328517913818 -0.74502253532409668
-2.01806402206420898 4.63217592239379883 0.000300000014249235392 0.0489157214760780334 0.0559835955500602722 -0.997232675552368164
-5.49970006942749023 2.29302978515625 4.39189434051513672 -0.994642972946166992 -0.0377088524401187897 -0.0962457731366157532
-2.81394672393798828 4.31455659866333008 5.49970006942749023 0.167899042367935181 0.177596062421798706 0.969674885272979736
-5.07379817962646484 5.49970006942749023 5.348175048828125 -0.0570704042911529541 0.788830995559692383 -0.611954689025878906
-5.07382631301879883 5.49970006942749023 5.34898948669433594 -0.140070512890815735 0.99012458324432373 -0.00578073551878333092
-0.000300000014249235392 3.5760040283203125 3.68658733367919922 0.989407777786254883 0.0525235533714294434 -0.135326772928237915
-5.49970006942749023 2.60889887809753418 4.65873050689697266 -0.997559905052185059 -0.0288022272288799286 -0.0635970607399940491
-0.79064488410949707 5.49970006942749023 1.21188366413116455 0.0790761411190032959 0.979409754276275635 -0.185751065611839294
-5.49970006942749023 4.52051401138305664 4.49680328369140625 -0.989124536514282227 0.136652007699012756 -0.0543947704136371613
-0.000300000014249235392 2.32979559898376465 1.23917078971862793 0.983542084693908691 -0.0107787707820534706 -0.180356964468955994
-5.49970006942749023 2.93155241012573242 4.27729082107543945 -0.992213845252990723 0.0804382339119911194 -0.0950854569673538208
-5.49970006942749023 1.4275357723236084 4.30092382431030273 -0.995669960975646973 -0.0470549911260604858 -0.0801688581705093384
-0.000300000014249235392 2.85276269912719727 4.36015224456787109 0.995086908340454102 0.0142587637528777122 -0.0979726910591125488
-0.000300000014249235392 4.49025869369506836 3.72890710830688477 0.988577485084533691 0.0861253440380096436 -0.123680822551250458
-2.3112940788269043 5.49970006942749023 2.75823807716369629 0.0354167819023132324 0.987930893898010254 -0.150791659951210022
-5.49970006942749023 4.96168994903564453 3.4818720817565918 -0.988070011138916016 0.097567044198513031 -0.119155779480934143
-5.49970006942749023 -0.864904403686523438 2.74687790870666504 -0.980222105979919434 -0.14792574942111969 -0.131462931632995605
-0.000300000014249235392 1.76501250267028809 4.92811059951782227 0.99374079704284668 -0.0953841358423233032 -0.058147035539150238
-0.000300000014249235392 5.48970127105712891 4.14077568054199219 0.988070249557495117 0.142366409301757812 -0.0587270148098468781
-0.000300000014249235392 3.84994411468505859 4.0953216552734375 0.990068435668945312 0.0824393704533576965 -0.113878034055233002
-5.49970006942749023 4.01660871505737305 3.6647336483001709 -0.985947847366333008 0.128413572907447815 -0.106848478317260742
-0.000300000014249235392 -0.0912928581237792969 4.68628978729248047 0.986883461475372314 -0.154726579785346985 -0.0460504181683063507
-1.46475625038146973 5.49970006942749023 3.96724748611450195 0.102317996323108673 0.989750981330871582 -0.0996191054582595825
-2.46084475517272949 5.49970006942749023 3.01404523849487305 0.197035983204841614 0.974917948246002197 -0.1034974604845047
-2.46152496337890625 5.49970006942749023 3.01415205001831055 -0.293505370616912842 0.952387094497680664 0.0825428441166877747
-2.46124958992004395 5.49970006942749023 3.01397943496704102 0.0541522800922393799 0.988361001014709473 -0.142161563038825989
-3.02624177932739258 3.00533437728881836 5.49970006942749023 -0.326495707035064697 0.372118681669235229 0.868866324424743652
-1.68575525283813477 1.57062733173370361 3.02614927291870117 -0.225335255265235901 0.126087069511413574 -0.966088056564331055
-0.000300000014249235392 4.05793428421020508 3.75923347473144531 0.990353584289550781 0.105610184371471405 -0.0897005423903465271
-4.12504720687866211 2.5718989372253418 3.3002924919128418 -0.132610291242599487 -0.0200533997267484665 -0.990965366363525391
-1.46553361415863037 5.49970006942749023 4.34090757369995117 0.561211347579956055 0.724299907684326172 -0.400538921356201172
-1.47672224044799805 5.49970006942749023 4.34885883331298828 0.0464704222977161407 0.995760262012481689 -0.0793849080801010132
-5.49970006942749023 2.80564141273498535 1.96097636222839355 -0.986031055450439453 0.0483510904014110565 -0.15938897430896759
-4.58115768432617188 5.49970006942749023 1.5915905237197876 -0.336324989795684814 0.894544124603271484 -0.294408172369003296
-4.58028316497802734 5.49970006942749023 1.59251940250396729 0.0425771288573741913 0.666424095630645752 0.744356095790863037
-4.58032083511352539 5.49970006942749023 1.59212648868560791 -0.0604605488479137421 0.980191230773925781 -0.188598930835723877
-5.49970006942749023 1.56609046459197998 4.50051498413085938 -0.992272853851318359 -0.102173894643783569 -0.0703921467065811157
-0.000300000014249235392 4.980560302734375 0.481749057769775391 0.894153118133544922 -0.103298723697662354 -0.435682743787765503
-0.801536440849304199 5.49970006942749023 2.66630983352661133 0.456316262483596802 0.72487938404083252 -0.516067147254943848
-0.80582726001739502 5.49970006942749023 2.67115640640258789 0.0981867313385009766 0.987941563129425049 -0.119711026549339294
-1.94742119312286377 5.49970006942749023 2.6757514476776123 0.112686686217784882 0.762398481369018555 -0.63722074031829834
-1.94757318496704102 5.49970006942749023 2.67670035362243652 0.0457401685416698456 0.989385485649108887 -0.137927889823913574
-5.49970006942749023 4.60390949249267578 3.87372016906738281 -0.984543800354003906 0.140191569924354553 -0.104974932968616486
-0.000300000014249235392 1.85559201240539551 3.47919750213623047 0.988968908786773682 0.00652454281225800514 -0.147979333996772766
-5.49970006942749023 2.80922174453735352 4.80069637298583984 -0.996629536151885986 0.0638978108763694763 -0.0514442585408687592
-0.000300000014249235392 2.38447904586791992 4.19810247421264648 0.994549930095672607 0.0205232556909322739 -0.102221071720123291
-2.67966699600219727 5.49970006942749023 3.21904945373535156 -0.00388401863165199757 0.988132476806640625 -0.153554365038871765
-4.38854360580444336 3.11307907104492188 3.3002922534942627 -0.100687101483345032 0.0811248347163200378 -0.991605162620544434
-5.22476482391357422 1.42284703254699707 0.000300000014249235392 -0.0673068314790725708 -0.0455197058618068695 -0.99669337272644043
-2.28227829933166504 3.19126582145690918 0.000300000014249235392 -0.181652471423149109 -0.902753591537475586 -0.389920800924301147
-2.28213262557983398 3.19201397895812988 0.000300000014249235392 0.0193836204707622528 0.176050111651420593 -0.984190285205841064
-2.2820587158203125 3.19179105758666992 0.000300000014249235392 0.0699565708637237549 0.141631156206130981 -0.987444460391998291
-2.28212285041809082 3.1916196346282959 0.000300000014249235392 0.0257146488875150681 0.0215174462646245956 -0.999437689781188965
-1.92455649375915527 5.49970006942749023 4.64619064331054688 0.494468480348587036 0.781237959861755371 -0.381009340286254883
-1.92505812644958496 5.49970006942749023 4.64661931991577148 0.24582304060459137 0.959688782691955566 -0.136266022920608521
-1.9256446361541748 5.49970006942749023 4.64689350128173828 0.0988041535019874573 0.99219810962677002 -0.0760295912623405457
-3.4344933032989502 2.23405313491821289 0.000300000014249235392 -0.893690884113311768 0.214703455567359924 -0.393978506326675415
-3.43382358551025391 2.23387718200683594 0.000300000014249235392 -0.0360268056392669678 -0.0411948375403881073 -0.998501360416412354
-0.000300000014249235392 0.958188056945800781 4.03498935699462891 0.991115570068359375 -0.102724850177764893 -0.0844835191965103149
-5.49970006942749023 4.58697366714477539 3.98110294342041016 -0.991293549537658691 0.0899368375539779663 -0.0961683765053749084
-4.65600299835205078 5.49970006942749023 3.42372250556945801 0.254397362470626831 0.963953256607055664 0.0779491886496543884
-3.3280787467956543 2.87827444076538086 3.3002924919128418 -0.264944732189178467 0.133414492011070251 -0.954989433288574219
-3.32683229446411133 2.87738204002380371 3.3002924919128418 0.298465043306350708 -0.340909868478775024 -0.89145892858505249
-3.32711267471313477 2.877655029296875 3.3002924919128418 -0.0111268647015094757 -0.0522346198558807373 -0.998572826385498047
-0.000300000014249235392 0.647253751754760742 4.50110483169555664 0.992248475551605225 -0.0922135785222053528 -0.0833045244216918945
-1.34662628173828125 2.40104866027832031 1.61271488666534424 -0.972486436367034912 -0.212017163634300232 -0.0965340584516525269
-1.3460853099822998 2.40088701248168945 1.612709641456604 -0.21177266538143158 -0.95394599437713623 -0.212460175156593323
-0.987173199653625488 5.49970006942749023 1.86883664131164551 -0.269462138414382935 0.947188019752502441 -0.173853293061256409
-0.985370755195617676 5.49970006942749023 1.86968374252319336 -0.130450040102005005 0.842881441116333008 0.52204740047454834
-0.98529362678527832 5.49970006942749023 1.86944675445556641 0.100525997579097748 0.980667829513549805 -0.167884320020675659
-5.49970006942749023 0.152382612228393555 5.43435096740722656 -0.992827415466308594 -0.119539164006710052 -0.00202519027516245842
-5.49970006942749023 3.95724964141845703 5.31492424011230469 -0.990123271942138672 0.139578759670257568 -0.0131766628473997116
-0.000300000014249235392 4.38139915466308594 1.67973864078521729 0.980322420597076416 0.0645300671458244324 -0.186557576060295105
-0.000300000014249235392 3.78767991065979004 3.84911108016967773 0.993470072746276855 0.0702558904886245728 -0.0898957327008247375
-0.000300000014249235392 5.49747467041015625 2.04216122627258301 0.999424338340759277 -0.000316043180646374822 0.0339242778718471527
-2.29750347137451172 5.49970006942749023 1.80324816703796387 0.130889356136322021 0.923987746238708496 0.359325140714645386
-2.2975924015045166 5.49970006942749023 1.80282950401306152 0.0292054601013660431 0.987908065319061279 -0.152265250682830811
-4.41136884689331055 5.49970006942749023 4.98243904113769531 -0.622009098529815674 0.736582100391387939 -0.265615105628967285
-4.40980052947998047 5.49970006942749023 4.98310947418212891 -0.0927187800407409668 0.994946002960205078 -0.0385444536805152893
-0.000300000014249235392 3.16211748123168945 5.42119550704956055 0.996954679489135742 0.0779193714261054993 -0.00313541223295032978
-5.49970006942749023 -0.2269439697265625 3.99294567108154297 -0.98815000057220459 -0.126332148909568787 -0.087176002562046051
-0.000300000014249235392 1.88103985786437988 4.06251764297485352 0.994844317436218262 -0.0428835675120353699 -0.0918999388813972473
-0.000300000014249235392 3.05545520782470703 3.4050290584564209 0.990648627281188965 0.0301204193383455276 -0.133071556687355042
-3.36891794204711914 4.29933404922485352 3.30029201507568359 -0.106605149805545807 0.112991131842136383 -0.987860441207885742
-5.49970006942749023 4.82896709442138672 2.72354960441589355 -0.980404376983642578 0.121617287397384644 -0.154972538352012634
-1.71741604804992676 5.34275913238525391 0.000300000014249235392 -0.259129881858825684 -0.724418282508850098 -0.638803422451019287
-1.71739029884338379 5.34322929382324219 0.000300000014249235392 -0.281716704368591309 0.3822745680809021 -0.880057811737060547
-1.71391761302947998 5.33873653411865234 0.000300000014249235392 0.0426633171737194061 0.1000223308801651 -0.994070053100585938
-2.49664831161499023 5.49970006942749023 5.36675453186035156 0.0609557852149009705 0.998088419437408447 -0.0101929707452654839
-5.49970006942749023 -0.348336935043334961 4.97054862976074219 -0.984052419662475586 -0.175242573022842407 -0.0305091254413127899
-0.000300000014249235392 5.37422323226928711 4.71378135681152344 0.988296627998352051 0.142953485250473022 -0.0532351024448871613
-0.000300000014249235392 4.63377285003662109 1.39843392372131348 0.97001338005065918 -0.0802574306726455688 -0.229418367147445679
