ply
format ascii 1.0
element vertex 375
property float x
property float y
property float z
property float nx
property float ny
property float nz
end_header
-5.49970006942749023 2.56182217597961426 4.01039695739746094 -0.942473888397216797 -0.0919323712587356567 -0.32138979434967041
-1.44608736038208008 5.49970006942749023 4.38753938674926758 0.235397309064865112 0.936080038547515869 -0.261423438787460327
-2.9676361083984375 3.17136788368225098 3.3002924919128418 -0.255482107400894165 0.137334421277046204 -0.95700991153717041
-5.49970006942749023 5.28945446014404297 5.26381397247314453 -0.815086841583251953 0.578438162803649902 -0.0322913751006126404
-5.49970006942749023 0.701653242111206055 4.91352462768554688 -0.949507713317871094 -0.27277413010597229 -0.155014082789421082
-2.01826810836791992 5.49970006942749023 2.14823508262634277 0.0574410893023014069 0.865651905536651611 -0.497340142726898193
-2.27667737007141113 5.49970006942749023 4.40405702590942383 0.017220672219991684 0.968327999114990234 -0.249087080359458923
-5.49970006942749023 3.94823932647705078 4.66036605834960938 -0.976882338523864746 0.106136061251163483 -0.185569122433662415
-0.000300000014249235392 -0.247441768646240234 3.45517969131469727 0.88121342658996582 -0.375820815563201904 -0.286743134260177612
-0.000300000014249235392 1.93114960193634033 2.43168091773986816 0.855732321739196777 0.00109184393659234047 -0.517417550086975098
-5.49970006942749023 2.25160479545593262 3.19329023361206055 -0.834748625755310059 -0.073109060525894165 -0.545756101608276367
-0.000300000014249235392 2.69338631629943848 2.33953166007995605 0.86337733268737793 0.166815727949142456 -0.476184844970703125
-0.000300000014249235392 2.52176809310913086 1.41473937034606934 0.81486743688583374 0.1257314532995224 -0.565846800804138184
-2.51672601699829102 5.49970006942749023 4.51381635665893555 0.0244881045073270798 0.976403176784515381 -0.214562654495239258
-5.49970006942749023 2.59424352645874023 5.18897628784179688 -0.989763021469116211 0.118535973131656647 -0.0794878453016281128
-0.000300000014249235392 2.35729002952575684 1.5922856330871582 0.850244283676147461 0.00215638987720012665 -0.526383876800537109
-5.15476131439208984 5.24090766906738281 0.000300000014249235392 -0.0438091196119785309 -0.059694778174161911 -0.997254848480224609
-4.96493673324584961 5.49970006942749023 4.32329082489013672 -0.306811243295669556 0.930201172828674316 -0.201475709676742554
-5.49970006942749023 1.62624228000640869 2.32913756370544434 -0.869960665702819824 -0.11101849377155304 -0.480461448431015015
-5.49970006942749023 3.94963741302490234 4.82840156555175781 -0.886410236358642578 0.373699188232421875 0.27317732572555542
-5.49970006942749023 3.32030057907104492 5.08343601226806641 -0.928404808044433594 0.362017005681991577 -0.0837144628167152405
-5.49970006942749023 2.174041748046875 3.27860140800476074 -0.882329463958740234 -0.181231305003166199 -0.43433845043182373
-3.50082087516784668 5.49970006942749023 2.72213864326477051 -0.0305213574320077896 0.869291961193084717 -0.493355780839920044
-2.16930103302001953 3.18215036392211914 0.000300000014249235392 0.0984253808856010437 0.143016725778579712 -0.984813988208770752
-0.000300238432828336954 2.41556644439697266 2.49902534484863281 0.88474726676940918 -0.245724856853485107 -0.39603346586227417
-3.15670061111450195 4.02892971038818359 3.3002922534942627 -0.0743014514446258545 0.424150675535202026 -0.90253835916519165
-5.49970006942749023 1.99780774116516113 3.95758795738220215 -0.952169299125671387 -0.0756972804665565491 -0.296046346426010132
-4.32301139831542969 5.49970006942749023 4.3540654182434082 -0.26366618275642395 0.923863530158996582 -0.277409851551055908
-5.49970006942749023 4.12157964706420898 4.12129020690917969 -0.935240983963012695 0.239637225866317749 -0.260572910308837891
-0.000300000014249235392 2.05694961547851562 1.59192824363708496 0.838340222835540771 -0.113416247069835663 -0.533218860626220703
-1.24469661712646484 5.49970006942749023 0.266264915466308594 0.109160400927066803 0.819931924343109131 -0.561956882476806641
-0.000300000014249235392 1.62504482269287109 5.45984315872192383 0.974504232406616211 -0.224362224340438843 -0.00172066572122275829
-2.06598186492919922 1.74756228923797607 3.00890183448791504 0.338367819786071777 -0.131283998489379883 -0.931811094284057617
-1.3038628101348877 3.06451702117919922 0.000300000014249235392 0.232341006398200989 -0.0116291586309671402 -0.972564876079559326
-0.000300000014249235392 2.10576820373535156 1.87147605419158936 0.820359110832214355 0.0432891659438610077 -0.570207774639129639
-1.81034564971923828 4.95728015899658203 0.000300000014249235392 0.0326213911175727844 0.21044372022151947 -0.97706151008605957
-1.45076644420623779 5.49970006942749023 1.8260800838470459 0.178947433829307556 0.863544583320617676 -0.471453666687011719
-0.000300000014249235392 2.55823755264282227 4.22028160095214844 0.970652103424072266 0.036886170506477356 -0.2376423180103302
-1.74415004253387451 5.49970006942749023 4.92223644256591797 0.229842483997344971 0.967851996421813965 -0.102151684463024139
-5.49970006942749023 1.91510963439941406 4.54532575607299805 -0.974390149116516113 0.00708170980215072632 -0.224752098321914673
-2.48239517211914062 1.69740009307861328 2.61514449119567871 0.752667665481567383 -0.0774137526750564575 -0.653833746910095215
-0.000300000014249235392 2.88370490074157715 4.33117580413818359 0.930366158485412598 0.252147853374481201 -0.266158431768417358
-5.0952906608581543 5.49970006942749023 4.55863666534423828 -0.410841882228851318 0.900479793548583984 -0.142636045813560486
-5.49970006942749023 0.71695399284362793 3.71053814888000488 -0.901024222373962402 -0.267284035682678223 -0.341635048389434814
-0.000300000014249235392 1.48447859287261963 3.62064623832702637 0.880288779735565186 -0.184173896908760071 -0.437231719493865967
-3.38341045379638672 5.49970006942749023 4.48029327392578125 -0.134418055415153503 0.973384499549865723 -0.18561890721321106
-5.49970006942749023 3.26877403259277344 3.58560609817504883 -0.867782235145568848 0.0920270383358001709 -0.488349288702011108
-5.49970006942749023 -0.88227534294128418 0.543360233306884766 -0.800168275833129883 -0.323338091373443604 -0.505156576633453369
-5.49970006942749023 4.29440021514892578 4.64508199691772461 -0.913599491119384766 0.337271779775619507 -0.227120384573936462
-5.06981849670410156 2.5377957820892334 0.000300000014249235392 -0.215620383620262146 0.0242431014776229858 -0.976176261901855469
-0.000300000014249235392 5.12520980834960938 4.00200939178466797 0.895701169967651367 0.347811609506607056 -0.27703133225440979
-5.49970006942749023 2.94465351104736328 2.77530837059020996 -0.890370011329650879 0.0961556583642959595 -0.444966554641723633
-0.000300000014249235392 3.98356246948242188 4.96680068969726562 0.894853591918945312 0.423836052417755127 -0.139999717473983765
-3.97951936721801758 1.66762757301330566 0.000300000014249235392 -0.193271547555923462 -0.00946302525699138641 -0.98109966516494751
-0.000300000014249235392 2.36793780326843262 4.99023818969726562 0.992284834384918213 -0.0519724264740943909 -0.11255914717912674
-5.49970006942749023 1.24542200565338135 0.321626663208007812 -0.782042145729064941 -0.232086643576622009 -0.578399300575256348
-5.49970006942749023 0.242617607116699219 4.39141178131103516 -0.825878500938415527 -0.525595545768737793 -0.204141765832901001
-5.49970006942749023 1.14958775043487549 3.84638404846191406 -0.640303134918212891 -0.748077154159545898 -0.174334168434143066
-3.19771289825439453 5.49970006942749023 5.05644559860229492 -0.0933956429362297058 0.986411809921264648 -0.13516254723072052
-0.0189719200134277344 2.87768125534057617 5.49970006942749023 0.54641425609588623 0.346005141735076904 0.762700736522674561
-5.26597499847412109 5.49970006942749023 4.41851949691772461 -0.466513693332672119 0.858809828758239746 -0.211685121059417725
-3.02101802825927734 -0.0529165267944335938 0.000300000014249235392 -0.0497955195605754852 -0.266163557767868042 -0.962640762329101562
-5.49970006942749023 3.20268154144287109 4.31212472915649414 -0.925095736980438232 0.157278791069984436 -0.345631539821624756
-0.000300000014249235392 3.77854394912719727 2.84534502029418945 0.865866899490356445 0.248293653130531311 -0.434309422969818115
-0.000300000014249235392 2.07316327095031738 5.150146484375 0.99229729175567627 0.0905975550413131714 -0.0844871625304222107
-1.98632574081420898 5.49970006942749023 4.65510272979736328 0.219635024666786194 0.960302293300628662 -0.171988055109977722
-0.000300000014249235392 3.4312901496887207 4.80489730834960938 0.925356745719909668 0.314483344554901123 -0.211695581674575806
-0.000300000014249235392 -0.366750240325927734 2.68759346008300781 0.855103909969329834 -0.389508545398712158 -0.342170029878616333
-3.23276901245117188 2.8097541332244873 3.3002924919128418 -0.124353460967540741 0.342472642660140991 -0.931261897087097168
-5.49970006942749023 -0.561311721801757812 1.58996593952178955 -0.82256782054901123 -0.350023359060287476 -0.448180496692657471
-5.49970006942749023 1.84669852256774902 3.78870820999145508 -0.896721243858337402 -0.0478091388940811157 -0.440005898475646973
-5.49970006942749023 1.57628440856933594 5.44905567169189453 -0.992506563663482666 -0.122146986424922943 -0.00327433878555893898
-0.0480732917785644531 3.44896793365478516 5.49970006942749023 0.499651581048965454 0.474268525838851929 0.724857211112976074
-3.08512568473815918 5.49970006942749023 0.380120992660522461 -0.0360068716108798981 0.768808066844940186 -0.638465046882629395
-5.49970006942749023 2.98889255523681641 4.75975894927978516 -0.983147263526916504 0.0842586532235145569 -0.16224043071269989
-0.000300000014249235392 -0.617305994033813477 1.78305578231811523 0.784173965454101562 -0.450723797082901001 -0.426519930362701416
-1.71441137790679932 5.49970006942749023 1.37131214141845703 -0.394744604825973511 0.898088455200195312 0.19394269585609436
-1.71419525146484375 5.49970006942749023 1.3710625171661377 0.231788098812103271 0.828626573085784912 -0.509560823440551758
-0.000299761595670133829 2.48455429077148438 4.67925071716308594 0.961796283721923828 -0.232568591833114624 0.14442908763885498
-1.82848024368286133 4.49038124084472656 0.000300000014249235392 0.13301926851272583 0.275145500898361206 -0.952155888080596924
-5.49970006942749023 4.77805328369140625 5.31868934631347656 -0.86881864070892334 0.494368791580200195 -0.0274515822529792786
-4.24139785766601562 5.49970006942749023 3.13623261451721191 -0.216917559504508972 0.873330235481262207 -0.436166197061538696
-0.000300000014249235392 3.8618769645690918 5.29954147338867188 0.970639586448669434 0.236550942063331604 -0.0436167456209659576
-2.63698363304138184 1.93893539905548096 0.944316983222961426 0.633757591247558594 -0.414146602153778076 -0.653325200080871582
-0.000300000014249235392 1.75372529029846191 4.60008144378662109 0.983901798725128174 0.0210099183022975922 -0.177470311522483826
-5.49970006942749023 1.7967989444732666 4.51822376251220703 -0.935411453247070312 -0.272249877452850342 -0.225577786564826965
-0.000300000014249235392 2.82823348045349121 5.15349388122558594 0.995228290557861328 -0.0322265811264514923 -0.0920984670519828796
-5.49970006942749023 4.83404636383056641 4.40786266326904297 -0.883501410484313965 0.429562628269195557 -0.186818480491638184
-5.49970006942749023 2.85359287261962891 4.99238872528076172 -0.989730238914489746 -0.10084078460931778 -0.101316697895526886
-0.000300000014249235392 3.11056017875671387 4.71153879165649414 0.955399751663208008 0.255747199058532715 -0.147663846611976624
-3.65538835525512695 5.49970006942749023 4.04662132263183594 -0.0795160531997680664 0.99301832914352417 -0.0871303677558898926
-0.000300000014249235392 2.43242716789245605 4.44499397277832031 0.975239038467407227 -0.0625010132789611816 -0.21213783323764801
-2.13763308525085449 1.71286618709564209 2.98312115669250488 0.342376470565795898 -0.274617671966552734 -0.898534119129180908
-5.49970006942749023 -0.25384974479675293 1.59592306613922119 -0.81920933723449707 -0.333394765853881836 -0.466630339622497559
-0.847480177879333496 3.73360872268676758 0.000300000014249235392 0.127800717949867249 0.101913966238498688 -0.986549794673919678
-5.49970006942749023 2.7389519214630127 5.27314949035644531 -0.99415886402130127 0.0935789644718170166 -0.0537690706551074982
-0.000300000014249235392 2.0420997142791748 4.49788856506347656 0.973588705062866211 -0.089830935001373291 -0.209893524646759033
-4.71844196319580078 1.45107007026672363 0.000300000014249235392 -0.309637606143951416 -0.0979436486959457397 -0.945796728134155273
-5.49970006942749023 2.70486950874328613 4.74734640121459961 -0.98505556583404541 -0.0783976912498474121 -0.153360277414321899
-0.000300000014249235392 3.32706356048583984 3.71142292022705078 0.906452298164367676 0.0198046751320362091 -0.421843618154525757
-0.872625231742858887 5.49970006942749023 5.3103790283203125 0.330788135528564453 0.942801117897033691 -0.0412937179207801819
-0.000300000014249235392 3.10257482528686523 2.41209840774536133 0.883330643177032471 0.0931651890277862549 -0.45939868688583374
-5.49970006942749023 4.60316038131713867 4.405029296875 -0.907991588115692139 0.374311923980712891 -0.188260003924369812
-0.000300000014249235392 2.50434231758117676 4.56511163711547852 0.975520431995391846 0.00612031621858477592 -0.219823375344276428
-3.52381658554077148 3.11627864837646484 3.3002924919128418 0.0265587624162435532 0.169135510921478271 -0.985234856605529785
-5.49970006942749023 -0.253695487976074219 3.82623171806335449 -0.858817160129547119 -0.422130435705184937 -0.290239483118057251
-0.518382549285888672 5.49970006942749023 4.79614734649658203 0.395860940217971802 0.90836942195892334 -0.134755551815032959
-0.502794504165649414 3.15877532958984375 0.000300000014249235392 -0.314035773277282715 -0.610927939414978027 -0.726738333702087402
-0.502559900283813477 3.15904951095581055 0.000300000014249235392 0.330355137586593628 0.0701135247945785522 -0.941248893737792969
-0.000300000014249235392 3.26070618629455566 1.37020695209503174 0.696579098701477051 0.440400838851928711 -0.56641387939453125
-2.72295999526977539 5.49970006942749023 3.59398007392883301 0.15164540708065033 0.908240795135498047 -0.390002995729446411
-4.56627798080444336 2.17932534217834473 0.000300000014249235392 -0.208988994359970093 -0.0454847961664199829 -0.976859629154205322
-0.000300000014249235392 2.01201152801513672 5.27331161499023438 0.938354432582855225 -0.341877549886703491 -0.0510940849781036377
-2.12051916122436523 5.49970006942749023 5.18255233764648438 0.0862997919321060181 0.993049800395965576 -0.0800274983048439026
-4.56787967681884766 3.47631287574768066 5.49970006942749023 -0.542472243309020996 0.0990639925003051758 0.834211945533752441
-0.000300000014249235392 1.89621496200561523 4.55811786651611328 0.952463030815124512 -0.0818941444158554077 -0.293440729379653931
-1.53806781768798828 2.24409675598144531 2.57226824760437012 -0.161922916769981384 -0.768876612186431885 -0.618554532527923584
-3.60541462898254395 2.66904783248901367 0.261127233505249023 -0.396541178226470947 0.639216125011444092 -0.658906519412994385
-0.000300000014249235392 4.96276283264160156 1.2414170503616333 0.781143486499786377 0.302470952272415161 -0.546192407608032227
-1.39539444446563721 5.49970006942749023 4.83938407897949219 0.20412541925907135 0.964816689491271973 -0.16571517288684845
-0.000300000014249235392 1.11822652816772461 5.21360254287719727 0.91483306884765625 -0.396431863307952881 -0.0769559890031814575
-0.000300000014249235392 -0.6516571044921875 4.91213893890380859 0.877947032451629639 -0.466035008430480957 -0.109637327492237091
-0.000300000014249235392 3.62454938888549805 2.3897850513458252 0.882106423377990723 0.195436090230941772 -0.428594082593917847
-0.000300000014249235392 3.11440324783325195 4.4660954475402832 0.960518598556518555 0.123706571757793427 -0.249199926853179932
-3.57783102989196777 5.49970006942749023 2.37850308418273926 -0.0140130380168557167 0.838760256767272949 -0.544320583343505859
-1.18297815322875977 5.49970006942749023 3.76521015167236328 0.236706569790840149 0.926894664764404297 -0.291266471147537231
-5.49970006942749023 2.72362828254699707 4.56331205368041992 -0.959740757942199707 -0.0647956207394599915 -0.273311495780944824
-0.000300000014249235392 3.30982446670532227 5.23090553283691406 0.925673723220825195 0.374520450830459595 -0.0535032525658607483
-3.61427497863769531 2.94357395172119141 3.3002924919128418 -0.372021883726119995 -0.0746983513236045837 -0.925213396549224854
-5.49970006942749023 0.755821704864501953 2.46430325508117676 -0.795529007911682129 -0.392149418592453003 -0.461900889873504639
-5.49970006942749023 0.642797470092773438 5.17017650604248047 -0.927684426307678223 -0.367428600788116455 -0.0663155987858772278
-0.478899478912353516 5.49970006942749023 5.06040430068969727 0.475009530782699585 0.877189874649047852 -0.0700268298387527466
-5.49970006942749023 4.55271005630493164 3.83716392517089844 -0.83428192138671875 0.444082677364349365 -0.326747983694076538
-2.05487298965454102 4.15196084976196289 0.000300000014249235392 0.0715280324220657349 0.279139518737792969 -0.957582831382751465
-5.49970006942749023 1.65904617309570312 2.14866471290588379 -0.856998562812805176 -0.0204997863620519638 -0.51491081714630127
-2.82148385047912598 5.49970006942749023 3.97502231597900391 0.0345841236412525177 0.937099933624267578 -0.347343534231185913
-5.49970006942749023 0.245192766189575195 1.99986815452575684 -0.814540624618530273 -0.338188469409942627 -0.471330195665359497
-5.49970006942749023 2.70104765892028809 4.00800848007202148 -0.920864582061767578 -0.0545533336699008942 -0.386047184467315674
-0.591956377029418945 5.49970006942749023 3.32044124603271484 0.264824599027633667 0.874970316886901855 -0.405333042144775391
-0.000300000014249235392 5.17377948760986328 1.19885444641113281 0.827531814575195312 0.256302922964096069 -0.499499678611755371
-1.74780762195587158 1.6173708438873291 3.04356265068054199 0.123315274715423584 -0.0160273052752017975 -0.992238163948059082
-5.49970006942749023 1.73923408985137939 1.25956881046295166 -0.790692448616027832 -0.126086056232452393 -0.59908902645111084
-0.000300000014249235392 4.54933547973632812 3.6015629768371582 0.86197209358215332 0.365232288837432861 -0.351581424474716187
-2.10326433181762695 5.49970006942749023 0.677945137023925781 0.0945262312889099121 0.795107364654541016 -0.599056839942932129
-2.67863631248474121 2.9565432071685791 1.9223710298538208 -0.346195012331008911 0.663167834281921387 -0.663594305515289307
-1.3382411003112793 5.49970006942749023 3.4083251953125 0.895374476909637451 0.0574983097612857819 0.441586315631866455
-1.34282815456390381 5.49970006942749023 3.40589094161987305 0.247374817728996277 0.888093948364257812 -0.387420654296875
-0.000300000014249235392 1.38954424858093262 0.985991954803466797 0.776388883590698242 -0.230602383613586426 -0.586551666259765625
-3.14159822463989258 3.34831619262695312 3.3002922534942627 0.0122452154755592346 0.430680304765701294 -0.902421474456787109
-5.49970006942749023 2.62024736404418945 5.11136722564697266 -0.979712963104248047 0.17911568284034729 -0.0898885428905487061
-0.000300000014249235392 4.12249469757080078 3.68672370910644531 0.893864274024963379 0.306686431169509888 -0.327032178640365601
-5.49970006942749023 1.61324131488800049 1.60264813899993896 -0.807680785655975342 -0.160895809531211853 -0.567242681980133057
-4.66280746459960938 1.92741751670837402 0.000300000014249235392 -0.119722694158554077 -0.328108519315719604 -0.937022626399993896
-4.66285324096679688 1.92750859260559082 0.000300000014249235392 -0.269544214010238647 -0.0448473058640956879 -0.961943149566650391
-2.77882027626037598 3.15023303031921387 3.3002924919128418 0.228310868144035339 0.0636431425809860229 -0.971505880355834961
-3.74426364898681641 5.49970006942749023 4.85037899017333984 -0.177945107221603394 0.971793174743652344 -0.154768973588943481
-0.000300000014249235392 -0.804248332977294922 4.98839664459228516 0.88405144214630127 -0.458224773406982422 -0.0921033322811126709
-3.8130943775177002 0.843480587005615234 0.000300238432828336954 -0.446966707706451416 -0.266504108905792236 -0.85392993688583374
-3.14692020416259766 2.66670584678649902 5.49970006942749023 0.41973114013671875 -0.366292834281921387 0.830455243587493896
-5.49970006942749023 4.29924154281616211 1.51847052574157715 -0.648102223873138428 -0.358310580253601074 -0.671994805335998535
-3.3286435604095459 5.49970006942749023 3.76975584030151367 0.00152780418284237385 0.929642796516418457 -0.368458718061447144
-5.49970006942749023 3.28134536743164062 4.47329854965209961 -0.952614784240722656 0.0575082376599311829 -0.298693537712097168
-1.23916757106781006 2.94397473335266113 0.000300000014249235392 0.208572730422019958 0.155981913208961487 -0.965487957000732422
-0.000300000014249235392 3.5856168270111084 4.21042346954345703 0.892356514930725098 0.266537189483642578 -0.364222019910812378
-5.49970006942749023 4.97498607635498047 3.46039104461669922 -0.843697190284729004 0.379192918539047241 -0.379983872175216675
-2.81695437431335449 3.63057827949523926 5.49970006942749023 0.500898063182830811 0.112456537783145905 0.8581695556640625
-0.000300000014249235392 0.983685612678527832 5.18014287948608398 0.871554434299468994 -0.485949456691741943 -0.0651614516973495483
-5.49970006942749023 2.79582405090332031 4.83635139465332031 -0.978306412696838379 0.0359493046998977661 -0.204020246863365173
-5.49970006942749023 4.00815629959106445 4.70905780792236328 -0.940275847911834717 0.316585361957550049 -0.125119730830192566
-3.66380643844604492 1.52572882175445557 0.000300000014249235392 -0.131711214780807495 -0.0509411171078681946 -0.989978313446044922
-0.000300000014249235392 3.53730106353759766 3.19551277160644531 0.91206049919128418 0.120798036456108093 -0.3918590247631073
-1.97162270545959473 5.49970006942749023 4.35896158218383789 0.251886159181594849 0.942429006099700928 -0.219956457614898682
-0.000300000014249235392 4.82155704498291016 1.90817654132843018 0.779897451400756836 0.378662198781967163 -0.498372197151184082
-4.57903623580932617 5.49970006942749023 4.03450202941894531 0.20418974757194519 0.68719404935836792 -0.697187840938568115
-4.57919836044311523 5.49970006942749023 4.03470706939697266 -0.225393712520599365 0.925213396549224854 -0.305250346660614014
-3.50740218162536621 4.04470968246459961 3.30029201507568359 -0.131134241819381714 0.182685673236846924 -0.974386870861053467
-5.49970006942749023 1.27820062637329102 4.94195318222045898 -0.958709061145782471 -0.240897700190544128 -0.151146441698074341
-1.95415186882019043 1.48147475719451904 3.01680278778076172 0.344587504863739014 0.0756626427173614502 -0.935700058937072754
-5.49970006942749023 0.553646564483642578 2.64599108695983887 -0.876703202724456787 -0.180921822786331177 -0.44571155309677124
-2.71842622756958008 5.49970006942749023 4.32361793518066406 -0.0528899170458316803 0.966759622097015381 -0.250156670808792114
-0.000300000014249235392 3.80777597427368164 5.19527149200439453 0.947868943214416504 0.306169301271438599 -0.0883442088961601257
-3.86264705657958984 5.49970006942749023 5.20732831954956055 -0.23493783175945282 0.969752907752990723 -0.0662078708410263062
-0.000300000014249235392 2.35751652717590332 4.35850334167480469 0.937102317810058594 -0.109350346028804779 -0.331484079360961914
-5.49970006942749023 3.33880162239074707 3.20166778564453125 -0.886234402656555176 0.0691947862505912781 -0.458040118217468262
-3.94922375679016113 5.49970006942749023 3.89198946952819824 -0.224803119897842407 0.932991921901702881 -0.281050950288772583
-5.49970006942749023 2.86597847938537598 3.68037891387939453 -0.914156973361968994 -0.0734735578298568726 -0.398645997047424316
-0.000300000014249235392 1.5694580078125 2.15026473999023438 0.808821737766265869 -0.130568817257881165 -0.573375225067138672
-0.000300000014249235392 4.93512582778930664 3.50729560852050781 0.891357421875 0.28770563006401062 -0.3502960205078125
-5.49970006942749023 0.873782753944396973 4.31060504913330078 -0.86961674690246582 -0.419038265943527222 -0.261100828647613525
-1.8709946870803833 1.30583202838897705 2.94860935211181641 0.0319297276437282562 0.230415791273117065 -0.972568273544311523
-3.84677314758300781 5.49970006942749023 4.54812192916870117 -0.215059027075767517 0.965142488479614258 -0.149163097143173218
-4.80123710632324219 5.49970006942749023 4.58941125869750977 -0.334799766540527344 0.925776422023773193 -0.175633460283279419
-5.49970006942749023 5.41980934143066406 3.20132017135620117 -0.899965286254882812 -0.0435445085167884827 -0.43378150463104248
-3.84895944595336914 5.49970006942749023 3.99707603454589844 -0.356552004814147949 0.885682761669158936 -0.297382950782775879
-0.000300000014249235392 2.98645520210266113 4.72478771209716797 0.979570388793945312 -0.0443286634981632233 -0.196154803037643433
-0.000300000014249235392 0.722039699554443359 3.01704192161560059 0.873944222927093506 -0.206627622246742249 -0.439916461706161499
-0.000300000014249235392 3.70769405364990234 3.54277801513671875 0.921582043170928955 0.224600851535797119 -0.316608518362045288
-5.49970006942749023 1.92362117767333984 4.38423442840576172 -0.929873108863830566 -0.123243726789951324 -0.346622288227081299
-1.97111713886260986 2.04755973815917969 2.91997098922729492 0.251467257738113403 -0.336313307285308838 -0.907555878162384033
-2.20501160621643066 5.49970006942749023 2.32346081733703613 0.160379752516746521 0.858356177806854248 -0.487342715263366699
-2.29870510101318359 0.57952570915222168 0.000300000014249235392 0.061956305056810379 -0.128100186586380005 -0.989824056625366211
-3.03578090667724609 5.49970006942749023 4.41806316375732422 -0.176866069436073303 0.954413175582885742 -0.240444913506507874
-0.000300000014249235392 1.51413476467132568 4.77540969848632812 0.957460463047027588 -0.260286450386047363 -0.124580793082714081
-2.80623149871826172 3.03495097160339355 3.3002924919128418 0.110878020524978638 0.173386245965957642 -0.978592514991760254
-5.49970006942749023 3.0790565013885498 5.28093385696411133 -0.97183990478515625 0.232405632734298706 -0.0389213748276233673
-2.92402291297912598 5.49970006942749023 5.45393180847167969 -0.141614317893981934 0.989914894104003906 -0.00370486942119896412
-2.06390500068664551 1.45454823970794678 2.97957134246826172 0.414602279663085938 0.032430499792098999 -0.909424662590026855
-5.49970006942749023 1.73175513744354248 4.38678312301635742 -0.959715127944946289 -0.081503942608833313 -0.268893808126449585
-0.000300000014249235392 2.95770168304443359 3.05535459518432617 0.869038939476013184 0.0370181053876876831 -0.49335673451423645
-3.97665262222290039 0.0450949668884277344 0.000300000014249235392 -0.156481102108955383 -0.337871134281158447 -0.928093075752258301
-4.23546409606933594 5.49970006942749023 5.01539516448974609 -0.133203119039535522 0.984796226024627686 -0.111504681408405304
-2.39379310607910156 5.49970006942749023 4.73895502090454102 0.0834457278251647949 0.987616300582885742 -0.132856413722038269
-1.03098201751708984 5.49970006942749023 4.16929769515991211 0.280420064926147461 0.489201009273529053 -0.825861334800720215
-1.0310673713684082 5.49970006942749023 4.16973781585693359 0.27123558521270752 0.940033316612243652 -0.206805601716041565
-0.000300000014249235392 3.0716400146484375 0.930936455726623535 0.810373961925506592 -0.00911159161478281021 -0.5858420729637146
-0.000300000014249235392 0.30575251579284668 0.504395484924316406 0.805710315704345703 -0.145597755908966064 -0.574135959148406982
-4.30652093887329102 0.796197295188903809 0.000300000014249235392 -0.249091863632202148 -0.232935592532157898 -0.940050125122070312
-0.000300000014249235392 2.91169404983520508 3.96984577178955078 0.946290016174316406 0.113727360963821411 -0.30265691876411438
-3.06240987777709961 5.49970006942749023 0.275249004364013672 -0.032594241201877594 0.792049765586853027 -0.609585702419281006
-0.000300000014249235392 5.15547847747802734 4.89708614349365234 0.832521617412567139 0.545995950698852539 -0.0937877371907234192
-1.92394435405731201 5.49970006942749023 5.32238197326660156 0.236204847693443298 0.971290111541748047 -0.0283319335430860519
-4.01830387115478516 2.61964678764343262 3.3002924919128418 -0.134607464075088501 -0.107831932604312897 -0.985014200210571289
-3.67831587791442871 5.49970006942749023 4.430511474609375 -0.10253480076789856 0.979505300521850586 -0.173366576433181763
-5.49970006942749023 -0.140460014343261719 5.28884458541870117 -0.910476088523864746 -0.411413013935089111 -0.0421009249985218048
-0.000300000014249235392 2.61397457122802734 0.0568916797637939453 0.824172496795654297 -0.00050963123794645071 -0.566338539123535156
-5.49970006942749023 3.21030068397521973 3.08448433876037598 -0.883496701717376709 0.176521673798561096 -0.433905094861984253
-4.63364458084106445 -0.676270484924316406 0.000300000014249235392 -0.17876337468624115 -0.264520406723022461 -0.94766688346862793
-2.09345078468322754 -0.145737409591674805 0.000300000014249235392 0.148727476596832275 -0.277757436037063599 -0.949068427085876465
-5.49970006942749023 3.95664739608764648 5.33460617065429688 -0.961663544178009033 0.273246020078659058 -0.0232328325510025024
-5.49970006942749023 0.454369783401489258 3.65913510322570801 -0.882428288459777832 -0.372761011123657227 -0.287000894546508789
-0.000300000014249235392 4.38431453704833984 5.04180812835693359 0.860849976539611816 0.501733124256134033 -0.0848595425486564636
-3.43938112258911133 2.72055339813232422 3.02420186996459961 -0.390600144863128662 0.649995088577270508 -0.651872575283050537
-0.000300000014249235392 2.8962094783782959 1.85243844985961914 0.82038581371307373 0.103474810719490051 -0.562370002269744873
-0.000300000014249235392 4.6122441291809082 5.32553863525390625 0.848990738391876221 0.527422249317169189 -0.0322556309401988983
-0.350092411041259766 4.12226724624633789 0.000300000014249235392 0.252991348505020142 0.160986483097076416 -0.953980445861816406
-3.1240088939666748 5.49970006942749023 0.831248998641967773 -0.162122160196304321 0.810078263282775879 -0.563462138175964355
-0.000300000014249235392 1.99105215072631836 0.829796671867370605 0.795196175575256348 -0.0258766766637563705 -0.60579979419708252
-0.000300000014249235392 -0.791526079177856445 2.96812748908996582 0.840493977069854736 -0.423639774322509766 -0.337785720825195312
-0.000300000014249235392 3.56138801574707031 4.0387721061706543 0.936490535736083984 0.259053617715835571 -0.236382275819778442
-3.61926102638244629 5.49970006942749023 4.75376605987548828 -0.28997465968132019 0.947104930877685547 -0.13750264048576355
-0.595236301422119141 5.49970006942749023 2.40812015533447266 0.2362813800573349 0.858440160751342773 -0.455248892307281494
-5.49970006942749023 3.00463032722473145 5.04832839965820312 -0.986550509929656982 0.139625817537307739 -0.0849860981106758118
-3.58951878547668457 5.49970006942749023 5.190277099609375 0.0117525337263941765 0.99834442138671875 -0.0563047640025615692
-5.49970006942749023 2.58700370788574219 4.9586176872253418 -0.9869498610496521 0.0992289334535598755 -0.126820847392082214
-1.79121458530426025 3.01672530174255371 0.000300000014249235392 -0.00237369141541421413 0.971208453178405762 -0.238219559192657471
-1.79116344451904297 3.01549363136291504 0.000300000014249235392 0.158246651291847229 -0.0289057977497577667 -0.986976385116577148
-0.000300000014249235392 0.762710690498352051 4.16914272308349609 0.886186599731445312 -0.36937403678894043 -0.279707163572311401
-3.84177255630493164 5.49970006942749023 3.36193227767944336 -0.0319382734596729279 0.913599848747253418 -0.405358165502548218
-0.518645286560058594 3.40222287178039551 0.000300000014249235392 0.233416423201560974 0.0162732470780611038 -0.972240686416625977
-5.49970006942749023 1.47210466861724854 4.29478073120117188 -0.928602397441864014 -0.301777482032775879 -0.215934813022613525
-0.000300000014249235392 3.03340554237365723 2.84659552574157715 0.907159149646759033 0.0210778098553419113 -0.420259386301040649
-3.33892393112182617 5.49970006942749023 2.9550025463104248 -0.137525290250778198 0.902465939521789551 -0.408218175172805786
-1.34972333908081055 5.49970006942749023 4.47708988189697266 0.380457520484924316 0.890694141387939453 -0.248829260468482971
-0.000300000014249235392 2.57536435127258301 1.98953115940093994 0.79453575611114502 0.082024991512298584 -0.60165172815322876
-5.49970006942749023 3.11169981956481934 3.91017675399780273 -0.957282364368438721 0.0337676182389259338 -0.287176281213760376
-3.73432421684265137 5.49970006942749023 3.95214033126831055 -0.0571306273341178894 0.960578560829162598 -0.272075235843658447
-5.2780308723449707 5.49970006942749023 2.38772773742675781 -0.221206635236740112 0.678133964538574219 -0.700858056545257568
-5.27807474136352539 5.49970006942749023 2.38786482810974121 -0.378754317760467529 0.801488876342773438 -0.462774991989135742
-0.000300000014249235392 3.23779153823852539 4.78904151916503906 0.933092951774597168 0.29715651273727417 -0.202572450041770935
-0.542964935302734375 5.49970006942749023 1.7774345874786377 0.31835976243019104 0.804819107055664062 -0.500912487506866455
-5.49970006942749023 1.74725353717803955 2.69379210472106934 -0.868454337120056152 -0.248356178402900696 -0.429076045751571655
-0.000300000014249235392 5.07716655731201172 3.59503316879272461 0.85648190975189209 0.424965888261795044 -0.292989104986190796
-0.177511215209960938 5.49970006942749023 2.33301758766174316 0.328145205974578857 0.84024280309677124 -0.431639552116394043
-2.12352323532104492 5.49970006942749023 2.69846582412719727 0.0211253426969051361 0.910563528537750244 -0.412828922271728516
-5.49970006942749023 -0.458163261413574219 0.0185272693634033203 -0.999179184436798096 0.00271849194541573524 0.0404179766774177551
-5.04946804046630859 -0.459507226943969727 0.000300000014249235392 -0.208776995539665222 -0.358220040798187256 -0.909994840621948242
-5.49970006942749023 0.308378219604492188 4.50332021713256836 -0.914673447608947754 -0.334282785654067993 -0.22721688449382782
-5.49970006942749023 3.66630125045776367 4.40291261672973633 -0.808203756809234619 0.448960840702056885 0.381105124950408936
-5.49970006942749023 2.46560025215148926 4.45601129531860352 -0.983115136623382568 0.0247201994061470032 -0.181310251355171204
-0.000300000014249235392 -0.318128108978271484 2.64669299125671387 0.842073559761047363 -0.374367833137512207 -0.388279229402542114
-3.87301111221313477 5.49970006942749023 3.58007574081420898 -0.0749554187059402466 0.930107355117797852 -0.359558016061782837
-4.59071254730224609 5.49970006942749023 4.36111927032470703 -0.344227463006973267 0.911776721477508545 -0.223988056182861328
-0.000300000014249235392 4.53874111175537109 5.3647613525390625 0.876668572425842285 0.48071405291557312 -0.0191345121711492538
-0.000300000014249235392 4.26734256744384766 4.60189580917358398 0.892133951187133789 0.428574919700622559 -0.142900004982948303
-3.52917814254760742 4.39253807067871094 3.30029201507568359 0.873544216156005859 0.349487900733947754 -0.33879011869430542
-3.53004026412963867 4.39240455627441406 3.30029201507568359 -0.245692387223243713 0.490432113409042358 -0.836128890514373779
-0.0592939853668212891 1.42416620254516602 0.000300000014249235392 0.286683320999145508 -0.183862149715423584 -0.940216660499572754
-0.000300000014249235392 0.267576932907104492 5.39951992034912109 0.834678530693054199 -0.550581812858581543 -0.0130929350852966309
-5.49970006942749023 4.1229710578918457 4.75370597839355469 -0.959829270839691162 0.226068869233131409 -0.166194289922714233
-5.49970006942749023 1.79389762878417969 0.0690717697143554688 -0.770360708236694336 -0.0495001524686813354 -0.635683894157409668
-0.000300000014249235392 5.01070880889892578 2.96975231170654297 0.879378139972686768 0.332454591989517212 -0.340834259986877441
-5.49970006942749023 4.92478084564208984 3.98390388488769531 -0.842712879180908203 0.46823805570602417 -0.2656840980052948
-0.0844347476959228516 5.49970006942749023 3.02287149429321289 0.426957249641418457 0.850128889083862305 -0.308201760053634644
-5.49970006942749023 -0.901227712631225586 1.26311624050140381 -0.77530825138092041 -0.408000797033309937 -0.48211243748664856
-0.000300000014249235392 1.69130420684814453 5.38118982315063477 0.974018692970275879 -0.225144729018211365 -0.0244430303573608398
-0.000300000014249235392 -0.311171293258666992 3.17611122131347656 0.860531389713287354 -0.32115548849105835 -0.395404636859893799
-0.475844144821166992 -0.624358177185058594 0.000300000014249235392 0.0592904277145862579 -0.95848393440246582 -0.278914302587509155
-0.475850105285644531 -0.623424053192138672 0.000300000014249235392 0.180304825305938721 -0.305970668792724609 -0.934811234474182129
-2.51552987098693848 5.49970006942749023 4.97797298431396484 0.0362613089382648468 0.986286342144012451 -0.16101035475730896
-0.000300000014249235392 2.87472295761108398 2.16878795623779297 0.804580450057983398 0.115228541195392609 -0.582557022571563721
-5.49970006942749023 2.89845418930053711 5.17058944702148438 -0.947593033313751221 0.310249418020248413 -0.0762409120798110962
-0.000300000014249235392 2.20121645927429199 4.68072986602783203 0.960820198059082031 -0.208459898829460144 -0.182671919465065002
-0.000300000014249235392 1.80793559551239014 3.79473733901977539 0.881025075912475586 -0.253954440355300903 -0.399126559495925903
-0.385202884674072266 5.49970006942749023 2.01472783088684082 -0.472571790218353271 0.0303815808147192001 -0.880768358707427979
-0.380402326583862305 5.49970006942749023 2.02325630187988281 0.36680901050567627 0.813246250152587891 -0.451753973960876465
-5.49970006942749023 2.41249513626098633 5.13328647613525391 -0.986038327217102051 0.141271397471427917 -0.0881515815854072571
-5.49970006942749023 1.71530985832214355 5.42670631408691406 -0.951881289482116699 -0.306206852197647095 -0.0126229105517268181
-5.49970006942749023 2.85313677787780762 2.01224327087402344 -0.791307449340820312 0.0207918491214513779 -0.6110648512840271
-0.000300000014249235392 3.7622225284576416 5.38115215301513672 0.946693301200866699 0.321159094572067261 -0.0250709298998117447
-2.2545921802520752 1.84126651287078857 2.88519573211669922 0.457990139722824097 -0.125832080841064453 -0.880006492137908936
-0.000300000014249235392 2.30286073684692383 2.79544234275817871 0.9027099609375 0.00537674594670534134 -0.430215895175933838
-0.000300000014249235392 1.48194336891174316 4.66778278350830078 0.960660099983215332 -0.235237449407577515 -0.147632956504821777
-2.64875531196594238 5.49970006942749023 5.41614627838134766 -0.124771475791931152 0.99210047721862793 -0.0129833240061998367
-0.000300000014249235392 2.10327506065368652 5.31313371658325195 0.998556613922119141 0.0325898230075836182 -0.0426921658217906952
-0.000300000014249235392 3.05267477035522461 4.13547611236572266 0.937577009201049805 -0.0251692123711109161 -0.346865743398666382
-2.47722244262695312 2.47429680824279785 0.806788921356201172 0.714735865592956543 -0.200962334871292114 -0.669900476932525635
-5.49970006942749023 1.64758384227752686 3.87520551681518555 -0.884886741638183594 -0.326898783445358276 -0.33183211088180542
-1.86070823669433594 5.49970006942749023 4.12117338180541992 0.0766567960381507874 0.951869964599609375 -0.296761095523834229
-0.000300000014249235392 2.67401552200317383 1.62907981872558594 0.762187838554382324 0.298910647630691528 -0.574214339256286621
-3.81137585639953613 5.49970006942749023 3.97087812423706055 -0.195725157856941223 0.950289607048034668 -0.24215969443321228
-0.000300000014249235392 1.15082037448883057 4.72975397109985352 0.880426406860351562 -0.435114383697509766 -0.188480272889137268
-0.000300000014249235392 5.02402400970458984 5.28382158279418945 0.920224308967590332 0.389649361371994019 -0.0368856601417064667
-0.000300000014249235392 0.641908407211303711 5.21977996826171875 0.91132587194442749 -0.406116515398025513 -0.0674872547388076782
-2.9890589714050293 2.99044203758239746 3.3002924919128418 -0.179671734571456909 -0.0615853369235992432 -0.981796979904174805
-2.61333703994750977 5.26140737533569336 5.49970006942749023 0.463254719972610474 0.754502773284912109 0.464887857437133789
-4.22590970993041992 5.49970006942749023 4.08078813552856445 -0.103412799537181854 0.96164405345916748 -0.254060059785842896
-5.49970006942749023 0.758880615234375 1.36824798583984375 -0.838416337966918945 -0.223379597067832947 -0.49715152382850647
-0.000300000014249235392 3.27579760551452637 5.20403671264648438 0.983427524566650391 0.164767980575561523 -0.075642801821231842
-2.4107508659362793 1.60392475128173828 2.74650740623474121 0.676388263702392578 -0.11869349330663681 -0.726918697357177734
-0.000300000014249235392 3.11709356307983398 0.934978723526000977 0.814406871795654297 0.188525840640068054 -0.548816323280334473
-2.98175692558288574 3.98537635803222656 3.3002922534942627 -0.136302560567855835 0.228189766407012939 -0.964028477668762207
-5.49970006942749023 5.34151220321655273 5.13009166717529297 -0.80214393138885498 0.594581842422485352 -0.0551137328147888184
-5.49970006942749023 0.943696737289428711 3.41392421722412109 -0.56837695837020874 -0.776220560073852539 -0.272817850112915039
-3.72057986259460449 3.40894532203674316 5.49970006942749023 0.0153204500675201416 0.0502716004848480225 0.998618066310882568
-5.14047718048095703 5.49970006942749023 5.28421592712402344 -0.524854660034179688 0.850580096244812012 -0.032265741378068924
-0.000300000014249235392 1.75375223159790039 0.596880912780761719 0.772070765495300293 -0.123210735619068146 -0.62347877025604248
-0.000300000014249235392 0.94053804874420166 3.09607934951782227 0.890011370182037354 -0.206395789980888367 -0.406546980142593384
-5.38462257385253906 -0.646218538284301758 0.000299523177091032267 -0.29803892970085144 -0.64146655797958374 -0.706889986991882324
-3.34262251853942871 5.49970006942749023 4.95999908447265625 -0.0401352643966674805 0.994852900505065918 -0.093042328953742981
-0.000300000014249235392 4.93410634994506836 4.35074520111083984 0.866959035396575928 0.467469125986099243 -0.17278464138507843
-0.000300000014249235392 -0.478528738021850586 3.3485565185546875 0.818349957466125488 -0.477554202079772949 -0.319758206605911255
-0.000300000014249235392 0.322663784027099609 3.97314834594726562 0.852126121520996094 -0.454351544380187988 -0.259703159332275391
-5.49970006942749023 -0.697859048843383789 1.60516035556793213 -0.805455982685089111 -0.405874937772750854 -0.431863576173782349
-4.34443521499633789 5.49970006942749023 3.13672375679016113 -0.232226893305778503 0.897947549819946289 -0.373846113681793213
-0.000300000014249235392 5.32429790496826172 3.49793505668640137 0.830620467662811279 0.482868224382400513 -0.277322709560394287
-5.49970006942749023 -0.152087211608886719 5.46093177795410156 -0.881545662879943848 -0.472097933292388916 -0.000845806789584457874
-5.49970006942749023 1.74472081661224365 4.14299392700195312 -0.93755948543548584 -0.251051664352416992 -0.2407388836145401
-2.25461530685424805 5.49970006942749023 5.06694221496582031 0.214989647269248962 0.970217883586883545 -0.111609682440757751
-4.48920679092407227 4.78342628479003906 5.49970006942749023 -0.365677028894424438 0.723833143711090088 0.585103154182434082
-5.49970006942749023 3.18219137191772461 3.64440298080444336 -0.932467460632324219 0.0759215056896209717 -0.353185951709747314
-0.000300000014249235392 4.05577278137207031 4.43516111373901367 0.938198685646057129 0.267446547746658325 -0.219671264290809631
-0.000300000014249235392 1.11459732055664062 1.70322191715240479 0.856768488883972168 -0.0996089130640029907 -0.50598984956741333
-2.26623010635375977 0.968232989311218262 1.65029621124267578 -0.187544316053390503 0.379869580268859863 -0.905829012393951416
-2.26611161231994629 0.968004226684570312 1.65029621124267578 0.174588218331336975 -0.319750756025314331 -0.931277811527252197
-0.000300000014249235392 0.568536758422851562 4.74243593215942383 0.927145659923553467 -0.351008683443069458 -0.131125122308731079
-0.000300000014249235392 3.24268388748168945 5.43669223785400391 0.999962568283081055 0.00198325072415173054 -0.00841411761939525604
-5.49970006942749023 2.08276700973510742 3.89611387252807617 -0.928092598915100098 -0.0771217197179794312 -0.3642750084400177
-5.49970006942749023 0.110748767852783203 4.87605094909667969 -0.910573720932006836 -0.396175384521484375 -0.117900744080543518
-3.60251522064208984 5.49970006942749023 4.55658912658691406 -0.208943560719490051 0.94076228141784668 -0.267037093639373779
-3.50922822952270508 5.49970006942749023 4.66059350967407227 -0.263871818780899048 0.941938519477844238 -0.207661747932434082
-4.03521299362182617 5.49970006942749023 5.11581850051879883 -0.354845613241195679 0.9329414963722229 -0.0608659535646438599
-3.61607122421264648 5.49970006942749023 4.48751544952392578 -0.0721838399767875671 0.982466578483581543 -0.171897843480110168
-5.49970006942749023 1.92821311950683594 5.18447399139404297 -0.963173151016235352 -0.258146494626998901 -0.0752182677388191223
-0.792493104934692383 5.49970006942749023 3.02312946319580078 0.334545135498046875 0.879893600940704346 -0.337441504001617432
-0.000300000014249235392 0.350040674209594727 4.45040416717529297 0.840083599090576172 -0.500495374202728271 -0.209198206663131714
-1.73799026012420654 5.49970006942749023 4.84760189056396484 0.157065272331237793 0.981038212776184082 -0.113554134964942932
-0.000300000014249235392 4.15556573867797852 3.12519335746765137 0.897435188293457031 0.13827061653137207 -0.418916702270507812
-0.000300000014249235392 0.0762248039245605469 2.46448731422424316 0.81605827808380127 -0.353652864694595337 -0.457141607999801636
-2.09093022346496582 2.05336999893188477 2.87366867065429688 0.40117114782333374 -0.342936933040618896 -0.849385678768157959
-0.000300000014249235392 4.34472846984863281 5.44125890731811523 0.956235170364379883 0.292565882205963135 -0.0044085928238928318
-2.76498937606811523 5.49970006942749023 2.56553173065185547 0.22464144229888916 0.784579455852508545 -0.577902495861053467
-0.125681400299072266 3.53141975402832031 0.000300000014249235392 0.298647850751876831 0.189265549182891846 -0.935407936573028564
-0.000300000014249235392 1.37257945537567139 1.09439229965209961 0.80497586727142334 -0.0798010379076004028 -0.587916314601898193
-5.49970006942749023 2.10797333717346191 4.61795568466186523 -0.970283389091491699 -0.096898987889289856 -0.221722051501274109
-3.33856487274169922 3.64587306976318359 3.3002922534942627 0.485793650150299072 -0.446953445672988892 -0.751157224178314209
-3.33881473541259766 3.64609408378601074 3.3002922534942627 -0.181441336870193481 0.137788355350494385 -0.973700881004333496
-3.15501213073730469 2.85687065124511719 3.3002924919128418 -0.129755511879920959 0.287929147481918335 -0.94882047176361084
-0.531148672103881836 5.49970006942749023 1.86870694160461426 0.688196420669555664 0.474566042423248291 -0.548792004585266113
-5.49970006942749023 2.13145685195922852 4.60332536697387695 -0.963791370391845703 0.132241308689117432 -0.23155638575553894
-3.99101471900939941 2.54943156242370605 3.29317998886108398 -0.580505132675170898 0.594014763832092285 -0.556920289993286133
-3.31901955604553223 1.43085587024688721 0.000300000014249235392 0.145722612738609314 0.337666809558868408 -0.929917216300964355
-3.31905484199523926 1.43072044849395752 0.000300000014249235392 0.0388254523277282715 -0.0879951640963554382 -0.995363950729370117
-0.000300000014249235392 1.80203604698181152 0.869852185249328613 0.800416290760040283 -0.163940787315368652 -0.576590955257415771
-0.000300000014249235392 1.85759854316711426 5.33183479309082031 0.979284584522247314 -0.197270512580871582 -0.0456732437014579773
-2.58189177513122559 5.49970006942749023 3.50691032409667969 0.110189631581306458 0.900356531143188477 -0.420970678329467773
