ply
format ascii 1.0
element vertex 374
property float x
property float y
property float z
property float nx
property float ny
property float nz
end_header
-5.49970006942749023 1.03964865207672119 3.66100931167602539 -0.894388079643249512 -0.183175936341285706 -0.408064335584640503
-2.12538695335388184 5.49970006942749023 3.44982814788818359 -0.00304855941794812679 0.938138127326965332 -0.34624779224395752
-0.0191822052001953125 -0.755636215209960938 0.000300000014249235392 0.312345623970031738 -0.253898918628692627 -0.915410041809082031
-2.48444795608520508 5.49970006942749023 5.15561437606811523 0.169133558869361877 0.982854485511779785 -0.073422558605670929
-4.08277797698974609 1.75491142272949219 0.000300000014249235392 -0.180711984634399414 -0.121038980782032013 -0.976059794425964355
-1.65287089347839355 0.184284448623657227 0.000300000014249235392 0.763599574565887451 -0.383267670869827271 -0.519636034965515137
-1.65325140953063965 0.184431076049804688 0.000300000014249235392 0.191027700901031494 -0.236887156963348389 -0.952571690082550049
-0.526473283767700195 -0.572869539260864258 0.000300000014249235392 0.153746172785758972 -0.340886056423187256 -0.92744743824005127
-0.000300000014249235392 4.30589199066162109 5.13740825653076172 0.913441002368927002 0.397146016359329224 -0.088885091245174408
-5.48192024230957031 5.49970006942749023 4.12726449966430664 -0.345819294452667236 0.912814974784851074 -0.217204302549362183
-3.92496871948242188 -0.606797695159912109 0.000300000014249235392 0.201369613409042358 -0.969383060932159424 -0.14052310585975647
-3.92542219161987305 -0.604851245880126953 0.000300000014249235392 -0.0700490474700927734 -0.385294258594512939 -0.920131206512451172
-1.91281449794769287 2.14634346961975098 2.84911227226257324 0.15578952431678772 -0.553073644638061523 -0.818437099456787109
-2.27894902229309082 5.49970006942749023 4.65949106216430664 0.649695456027984619 0.683746576309204102 -0.332244575023651123
-2.27926397323608398 5.49970006942749023 4.65957260131835938 -0.0974053516983985901 0.973249554634094238 -0.208080381155014038
-0.000300000014249235392 2.28638935089111328 5.45848226547241211 0.989429831504821777 -0.145000830292701721 -0.00181660347152501345
-2.10204815864562988 1.8415151834487915 2.97551178932189941 0.405694484710693359 -0.208896279335021973 -0.889816999435424805
-5.49970006942749023 1.35966646671295166 3.13487672805786133 -0.888580679893493652 -0.185596272349357605 -0.419497698545455933
-5.49970006942749023 1.94617199897766113 0.484255313873291016 -0.770380735397338867 -0.0528065413236618042 -0.635393500328063965
-5.49970006942749023 1.01679527759552002 4.56150293350219727 -0.873986363410949707 -0.441406726837158203 -0.203243359923362732
-2.52394914627075195 -0.245592832565307617 0.000300000014249235392 -0.0551849678158760071 -0.32003292441368103 -0.94579780101776123
-5.49970006942749023 1.38256645202636719 2.32384204864501953 -0.835230827331542969 -0.290987998247146606 -0.466599851846694946
-0.000300000014249235392 1.79548871517181396 5.11366558074951172 0.990731656551361084 -0.0719819292426109314 -0.115192607045173645
-0.000300000014249235392 1.79829096794128418 4.90463542938232422 0.975453615188598633 -0.170592352747917175 -0.139242127537727356
-0.000300000014249235392 1.19134998321533203 1.63586306571960449 0.78622901439666748 -0.273379415273666382 -0.554172933101654053
-5.49970006942749023 4.53351783752441406 4.84706401824951172 -0.956486701965332031 0.255555242300033569 -0.140800461173057556
-5.49970006942749023 4.96352195739746094 3.9145359992980957 -0.865121126174926758 0.389336645603179932 -0.316200017929077148
-2.95638251304626465 5.49970006942749023 3.08681201934814453 0.0678106769919395447 0.894101262092590332 -0.442701458930969238
-0.000300000014249235392 0.80598914623260498 1.54492688179016113 0.826746046543121338 -0.163259103894233704 -0.538365542888641357
-0.0675883293151855469 5.49970006942749023 4.65459012985229492 -0.0734492391347885132 0.987093210220336914 0.142310351133346558
-0.0674493312835693359 5.49970006942749023 4.65449810028076172 0.357767283916473389 0.921725273132324219 -0.149749726057052612
-5.49970006942749023 0.856602072715759277 4.70997905731201172 -0.945652782917022705 -0.253447562456130981 -0.203728064894676208
-4.19988918304443359 5.49970006942749023 4.81296539306640625 -0.208246514201164246 0.963793277740478516 -0.166540861129760742
-0.000300000014249235392 4.67837810516357422 4.05213451385498047 0.865401864051818848 0.432693064212799072 -0.252697855234146118
-5.49970006942749023 2.72730517387390137 5.40779495239257812 -0.997049927711486816 0.0748462304472923279 -0.017012033611536026
-3.9569854736328125 5.49970006942749023 3.34763193130493164 -0.422988444566726685 0.867943286895751953 0.260298311710357666
-3.95686864852905273 5.49970006942749023 3.34742927551269531 -0.0913762450218200684 0.932042837142944336 -0.350637167692184448
-0.000300000014249235392 0.235220432281494141 3.54285383224487305 0.815099954605102539 -0.474664300680160522 -0.332123219966888428
-0.000300000014249235392 2.42867302894592285 3.11632585525512695 0.89439237117767334 -0.0961417853832244873 -0.436828434467315674
-5.49970006942749023 -0.0452189445495605469 5.04195737838745117 -0.927715420722961426 -0.366833418607711792 -0.069118209183216095
-0.000300000014249235392 4.89166021347045898 3.11392092704772949 0.872902870178222656 0.342585653066635132 -0.34738391637802124
-4.31682491302490234 5.49970006942749023 5.42327976226806641 -0.372609436511993408 0.927919745445251465 -0.0112777864560484886
-0.000300000014249235392 2.68786358833312988 5.08227252960205078 0.969191789627075195 0.232158392667770386 -0.0822776108980178833
-3.43324613571166992 5.49970006942749023 3.52666592597961426 0.365407466888427734 0.927917957305908203 -0.0737946927547454834
-3.43344688415527344 5.49970006942749023 3.52657747268676758 -0.249808132648468018 0.906773686408996582 -0.339642912149429321
-0.000300000014249235392 5.43682193756103516 5.22673511505126953 0.851784408092498779 0.522535860538482666 -0.0376766324043273926
-0.000300000014249235392 2.18657875061035156 4.62346553802490234 0.975677311420440674 -0.086547456681728363 -0.201403424143791199
-3.19824075698852539 3.65838742256164551 3.3002922534942627 -0.112092055380344391 0.516944289207458496 -0.848648309707641602
-3.19817137718200684 3.6583099365234375 3.3002922534942627 0.0933848097920417786 0.329564124345779419 -0.93950343132019043
-0.000300000014249235392 -0.0671801567077636719 5.08020973205566406 0.883014202117919922 -0.463486313819885254 -0.0739350989460945129
-5.49970006942749023 2.98866939544677734 4.93228912353515625 -0.974967241287231445 0.102370917797088623 -0.197380542755126953
-0.000300000014249235392 0.0821597576141357422 3.69984078407287598 0.863300204277038574 -0.441865056753158569 -0.243860632181167603
-5.49970006942749023 0.0705854892730712891 4.94263648986816406 -0.937201738357543945 -0.332914561033248901 -0.104022994637489319
-4.82173013687133789 1.06238424777984619 0.000300000014249235392 -0.489265769720077515 -0.473346441984176636 -0.732504010200500488
-4.82158374786376953 1.06253373622894287 0.000300000014249235392 -0.174580901861190796 -0.144184812903404236 -0.974028885364532471
-5.24624109268188477 5.49970006942749023 4.67145919799804688 -0.634738445281982422 0.762211322784423828 0.127047240734100342
-0.000300000014249235392 3.73107385635375977 0.930372953414916992 0.798417031764984131 0.230477616190910339 -0.556246578693389893
-0.000300000014249235392 0.479839801788330078 4.8624119758605957 0.905497610569000244 -0.410379886627197266 -0.107992447912693024
-5.49970006942749023 2.34121036529541016 4.74076223373413086 -0.986698269844055176 -0.0849255993962287903 -0.138615161180496216
-5.49970006942749023 0.0921068191528320312 0.0591886043548583984 -0.774615049362182617 -0.238221108913421631 -0.585851669311523438
-3.10754990577697754 3.49745392799377441 3.3002922534942627 -0.220139071345329285 0.236083537340164185 -0.946468889713287354
-5.49970006942749023 2.80103206634521484 2.44526839256286621 -0.894218921661376953 0.0137261459603905678 -0.447419404983520508
-1.89916443824768066 5.49970006942749023 4.32677650451660156 0.29245421290397644 0.911474108695983887 -0.289284229278564453
-0.000300000014249235392 2.48555111885070801 4.28959321975708008 0.948790907859802246 0.103058315813541412 -0.298621416091918945
-5.49970006942749023 3.77519702911376953 3.8103175163269043 -0.840188503265380859 0.390453070402145386 -0.37633708119392395
-2.96507024765014648 3.4314579963684082 3.3002922534942627 -0.0804043188691139221 0.25606200098991394 -0.963310599327087402
-5.49970006942749023 -0.145287275314331055 4.41599607467651367 -0.856012463569641113 -0.483150362968444824 -0.183870509266853333
-5.49970006942749023 -0.31572413444519043 2.48308396339416504 -0.799954771995544434 -0.458586424589157104 -0.387002319097518921
-5.49970006942749023 0.832390069961547852 4.27044010162353516 -0.909932732582092285 -0.307326436042785645 -0.278518974781036377
-5.49970006942749023 2.08913612365722656 3.31735873222351074 -0.889109492301940918 -0.149133875966072083 -0.432716220617294312
-0.000300000014249235392 3.75782442092895508 5.11201858520507812 0.994099736213684082 0.0699071139097213745 -0.0829374343156814575
-5.49970006942749023 1.08149123191833496 0.423728704452514648 -0.797507405281066895 -0.182266280055046082 -0.575118184089660645
-3.86289501190185547 5.49970006942749023 4.60113525390625 -0.0939897224307060242 0.967857122421264648 -0.233277738094329834
-5.49970006942749023 3.29182863235473633 3.75411748886108398 -0.933818399906158447 0.114368163049221039 -0.338973492383956909
-0.000300000014249235392 5.11060953140258789 2.40382599830627441 0.819666504859924316 0.428666412830352783 -0.379989415407180786
-5.49970006942749023 2.62398815155029297 4.79239845275878906 -0.977477014064788818 0.138171344995498657 -0.159522369503974915
-0.000300000014249235392 2.83271408081054688 4.68365192413330078 0.939835190773010254 0.250152856111526489 -0.232665523886680603
-0.000300000014249235392 0.878171682357788086 3.73872852325439453 0.854166328907012939 -0.402203857898712158 -0.329593509435653687
-4.1153717041015625 2.4235992431640625 5.49970006942749023 -0.252696990966796875 -0.538429737091064453 0.803888857364654541
-2.48618412017822266 5.49970006942749023 5.22778606414794922 -0.0140207922086119652 0.998861312866210938 -0.0455999970436096191
-2.73725700378417969 5.49970006942749023 4.68910074234008789 -0.031592048704624176 0.997883617877960205 0.0568347945809364319
-2.73730802536010742 5.49970006942749023 4.68902349472045898 -0.194165319204330444 0.96186375617980957 -0.19266018271446228
-5.49970006942749023 -0.0107769966125488281 1.697670578956604 -0.768307328224182129 -0.341217875480651855 -0.541547894477844238
-5.49970006942749023 3.32476925849914551 5.26234817504882812 -0.992253661155700684 0.10673823207616806 -0.0635581761598587036
-3.90303826332092285 1.83077406883239746 0.000300000014249235392 -0.526284456253051758 -0.463282555341720581 -0.713017523288726807
-3.90285468101501465 1.83091998100280762 0.000300000014249235392 -0.122540831565856934 -0.159204721450805664 -0.979610919952392578
-2.15582942962646484 1.93358492851257324 2.91378664970397949 0.375362753868103027 -0.207211494445800781 -0.903419256210327148
-5.49970006942749023 3.85449695587158203 4.34775114059448242 -0.954000115394592285 0.174116402864456177 -0.244063988327980042
-1.52753424644470215 3.58611440658569336 0.000299761595670133829 0.264612585306167603 0.747316420078277588 -0.609506666660308838
-1.52763557434082031 3.58577919006347656 0.000300000014249235392 0.0956561341881752014 0.1103549525141716 -0.989278316497802734
-2.35758018493652344 1.6874542236328125 2.81895661354064941 0.495928645133972168 -0.673004567623138428 -0.548743724822998047
-0.000300000014249235392 3.30338311195373535 5.13617992401123047 0.995255351066589355 -0.0341662950813770294 -0.0911008566617965698
-3.21759724617004395 3.81609869003295898 5.49970006942749023 0.304601669311523438 0.317153304815292358 0.898126661777496338
-3.24927330017089844 4.22739553451538086 3.30029201507568359 -0.0450326278805732727 0.248919054865837097 -0.967476725578308105
-5.49970006942749023 2.53776144981384277 4.14098453521728516 -0.92909395694732666 -0.0663203969597816467 -0.363848686218261719
-1.41591858863830566 1.70496070384979248 2.89955830574035645 -0.270306885242462158 -0.0479427948594093323 -0.961579799652099609
-5.49970006942749023 0.232452869415283203 3.25704169273376465 -0.830616950988769531 -0.364880979061126709 -0.420639187097549438
-1.16842555999755859 -0.668737649917602539 0.000300000014249235392 0.37103155255317688 -0.773674368858337402 -0.513579130172729492
-1.16855752468109131 -0.66838383674621582 0.000300000014249235392 0.259585291147232056 -0.299842923879623413 -0.917992174625396729
-0.000300000014249235392 2.57933473587036133 4.58193159103393555 0.984958350658416748 0.027766769751906395 -0.170546263456344604
-0.000300000014249235392 3.23787808418273926 3.47630119323730469 0.912668406963348389 0.111918017268180847 -0.393078505992889404
-0.000300000014249235392 2.70643854141235352 4.02519845962524414 0.926845669746398926 0.0458791926503181458 -0.372628688812255859
-0.000300000014249235392 4.3336944580078125 2.7509608268737793 0.828592240810394287 0.327655583620071411 -0.453956663608551025
-0.000300000014249235392 1.18705880641937256 1.04333460330963135 0.820991635322570801 -0.192990660667419434 -0.537333548069000244
-3.50363850593566895 5.49970006942749023 5.29904890060424805 -0.714996337890625 0.601402819156646729 0.356503665447235107
-3.50338983535766602 5.49970006942749023 5.29885721206665039 -0.337435066699981689 0.940338134765625 -0.0436092577874660492
-4.76705265045166016 -0.465811014175415039 0.000300000014249235392 -0.330728083848953247 -0.927871048450469971 -0.172262251377105713
-4.76655101776123047 -0.464314460754394531 0.000300000014249235392 -0.225873693823814392 -0.365552991628646851 -0.902968406677246094
-2.98979759216308594 1.86473202705383301 0.000300000014249235392 0.0434367842972278595 -0.0177121590822935104 -0.998899102210998535
-4.00139904022216797 5.49970006942749023 4.55055427551269531 -0.17190881073474884 0.961266219615936279 -0.21544058620929718
-2.42040872573852539 -0.0372583866119384766 0.000300000014249235392 0.479415625333786011 -0.612635135650634766 -0.628362059593200684
-2.4206545352935791 -0.0370464324951171875 0.000300000014249235392 -0.054490700364112854 -0.258879810571670532 -0.964371323585510254
-3.05267524719238281 0.355472087860107422 0.000300000014249235392 0.405500262975692749 0.363046705722808838 -0.838908016681671143
-3.05283355712890625 0.355286359786987305 0.000300000014249235392 -0.044866710901260376 -0.183406740427017212 -0.982012629508972168
-0.000300000014249235392 1.90950965881347656 5.00140857696533203 0.961729109287261963 -0.249832272529602051 -0.112520992755889893
-0.000300000014249235392 1.53437519073486328 3.52292537689208984 0.90396583080291748 -0.0722639709711074829 -0.421454250812530518
-4.84810590744018555 1.73103797435760498 5.49970006942749023 -0.503102302551269531 -0.65000760555267334 0.569542169570922852
-0.000300000014249235392 -0.461042404174804688 3.95447587966918945 0.873323678970336914 -0.398494929075241089 -0.280191957950592041
-0.000300000014249235392 3.47094106674194336 5.31840896606445312 0.981990337371826172 0.182405158877372742 -0.049226861447095871
-2.08558464050292969 5.49970006942749023 4.48427343368530273 -0.221167996525764465 0.959941506385803223 0.172037750482559204
-2.08542895317077637 5.49970006942749023 4.48413848876953125 0.26812511682510376 0.929973483085632324 -0.251511901617050171
-4.16115951538085938 -0.515753507614135742 0.000300000014249235392 -0.244681894779205322 -0.283864051103591919 -0.927120208740234375
-2.93546724319458008 1.35404884815216064 0.000300000014249235392 -0.272736191749572754 -0.769751191139221191 -0.577146470546722412
-2.93531298637390137 1.35442435741424561 0.000300000014249235392 0.042233247309923172 -0.0791642442345619202 -0.995966553688049316
-2.26939916610717773 5.49970006942749023 4.40816307067871094 -0.449134975671768188 0.891693711280822754 -0.0562146119773387909
-2.26925873756408691 5.49970006942749023 4.40811824798583984 -0.0347015969455242157 0.977544188499450684 -0.207853630185127258
-3.54361438751220703 1.68076610565185547 0.000300000014249235392 0.257868140935897827 -0.0153786614537239075 -0.966057717800140381
-3.54370832443237305 1.68076002597808838 0.000300000014249235392 -0.0464086458086967468 -0.0361515730619430542 -0.99826812744140625
-5.49970006942749023 4.54352807998657227 4.92881107330322266 -0.936336517333984375 0.331987380981445312 -0.114272825419902802
-3.75246286392211914 5.49970006942749023 3.41337299346923828 -0.112157382071018219 0.88436579704284668 -0.453120023012161255
-5.49970006942749023 1.16452145576477051 3.9157862663269043 -0.943654894828796387 -0.0855665579438209534 -0.319677591323852539
-5.49970006942749023 2.25505399703979492 5.10393476486206055 -0.97166132926940918 -0.206100165843963623 -0.115744620561599731
-1.45942282676696777 2.11098480224609375 2.71749091148376465 -0.320427417755126953 -0.486293971538543701 -0.812923431396484375
-0.000300000014249235392 -0.705895423889160156 4.00719070434570312 0.869188308715820312 -0.451521098613739014 -0.201594367623329163
-3.01460003852844238 5.49970006942749023 2.96712470054626465 0.48968505859375 0.440207302570343018 -0.752612829208374023
-3.01493477821350098 5.49970006942749023 2.96747064590454102 -0.00327601004391908646 0.874251902103424072 -0.48546147346496582
-3.35949563980102539 3.00305652618408203 3.3002924919128418 -0.683572649955749512 0.262901574373245239 -0.68088996410369873
-3.35920166969299316 3.00297069549560547 3.3002924919128418 -0.023100733757019043 0.0991223454475402832 -0.994807004928588867
-2.8165123462677002 5.49970006942749023 4.47010183334350586 0.604479074478149414 0.376404643058776855 -0.702085912227630615
-2.81699132919311523 5.49970006942749023 4.47057914733886719 0.00879000592976808548 0.964625000953674316 -0.263479441404342651
-5.49970006942749023 1.48439550399780273 5.05727291107177734 -0.939239799976348877 -0.32873910665512085 -0.0987885966897010803
-0.991443634033203125 -0.677288055419921875 0.000300000014249235392 0.19631659984588623 -0.313874125480651855 -0.928947091102600098
-0.000300000014249235392 0.373512983322143555 4.68282985687255859 0.915189146995544434 -0.361496061086654663 -0.178183898329734802
-0.670241832733154297 5.49970006942749023 5.15309047698974609 0.45386996865272522 0.889725089073181152 -0.0489004217088222504
-0.000300000014249235392 3.94274592399597168 5.29582500457763672 0.924152255058288574 0.380363434553146362 -0.0355851277709007263
-0.423690557479858398 3.1240687370300293 0.000300000014249235392 0.277328312397003174 0.168809309601783752 -0.945828914642333984
-2.17217183113098145 1.59499025344848633 2.96309113502502441 0.487541854381561279 -0.110001839697360992 -0.866142392158508301
-0.000300000014249235392 2.08645868301391602 1.80291867256164551 0.827009022235870361 0.0612243413925170898 -0.558844923973083496
-0.000300000014249235392 1.77263379096984863 4.92737579345703125 0.974120199680328369 -0.204617202281951904 -0.0960290431976318359
-2.17814159393310547 1.21817469596862793 2.76377153396606445 0.428316235542297363 0.33942827582359314 -0.837456703186035156
-4.81352710723876953 -0.618986368179321289 0.000300000014249235392 -0.196536600589752197 -0.244983047246932983 -0.9493979811668396
-4.89431285858154297 5.49970006942749023 3.69382047653198242 -0.322780311107635498 0.904400467872619629 -0.279056668281555176
-0.000300000014249235392 2.64087295532226562 3.82341575622558594 0.907511532306671143 0.183740466833114624 -0.37770649790763855
-0.000300000014249235392 3.02026009559631348 3.27546238899230957 0.914791464805603027 0.0588317438960075378 -0.399619013071060181
-0.000300000014249235392 4.77844810485839844 0.888122677803039551 0.784980595111846924 0.182350695133209229 -0.592075705528259277
-4.64054107666015625 5.49970006942749023 4.1535181999206543 -0.469093859195709229 0.848044157028198242 -0.246519938111305237
-3.80275392532348633 2.9189295768737793 3.3002924919128418 -0.855140745639801025 -0.233282208442687988 -0.4629402756690979
-3.80230021476745605 2.91918373107910156 3.3002924919128418 -0.301161825656890869 0.309844672679901123 -0.901830196380615234
-1.19227683544158936 5.49970006942749023 3.55472755432128906 0.382358640432357788 0.873970508575439453 -0.299962282180786133
-2.02523565292358398 5.49970006942749023 2.87426948547363281 0.527846992015838623 0.771749973297119141 -0.354654133319854736
-2.02544593811035156 5.49970006942749023 2.87424373626708984 -0.0148681653663516045 0.87776482105255127 -0.478860855102539062
-2.86599826812744141 3.19302082061767578 3.3002924919128418 -0.0866201594471931458 0.0847690701484680176 -0.992628335952758789
-0.000300000014249235392 2.59534525871276855 4.51441574096679688 0.961072862148284912 0.0295047909021377563 -0.274715065956115723
-5.49970006942749023 3.78565454483032227 4.08516979217529297 -0.933292508125305176 0.174181923270225525 -0.314047425985336304
-4.07300138473510742 5.49970006942749023 5.35982370376586914 -0.55667644739151001 0.592141151428222656 -0.582649290561676025
-4.07279682159423828 5.49970006942749023 5.36011219024658203 -0.249558091163635254 0.968095779418945312 -0.0226113311946392059
-0.000300000014249235392 4.00207614898681641 5.13337612152099609 0.966724634170532227 0.248568058013916016 -0.0604757256805896759
-2.92027711868286133 0.0736169815063476562 0.000300000014249235392 -0.0429780296981334686 -0.271272867918014526 -0.961542487144470215
-5.49970006942749023 1.27827417850494385 2.34065532684326172 -0.838807463645935059 -0.0738774314522743225 -0.539392292499542236
-3.96148347854614258 5.49970006942749023 2.15830850601196289 0.313439220190048218 0.304668903350830078 -0.899406909942626953
-3.96188735961914062 5.49970006942749023 2.15899991989135742 -0.257967829704284668 0.81151580810546875 -0.524304032325744629
-5.49970006942749023 0.181783914566040039 3.61519813537597656 -0.898715019226074219 -0.31102144718170166 -0.309155136346817017
-0.000299761595670133829 2.58704805374145508 4.76885509490966797 0.96159660816192627 -0.234302639961242676 0.142947733402252197
-0.902889251708984375 2.37352347373962402 0.000300000014249235392 -0.447580128908157349 -0.14271099865436554 -0.882782936096191406
-0.902651309967041016 2.37354254722595215 0.000300000014249235392 0.272957712411880493 -0.0939908772706985474 -0.95742344856262207
-2.40527963638305664 5.49970006942749023 5.16237258911132812 0.0380459725856781006 0.995832681655883789 -0.0828834623098373413
-5.49970006942749023 2.23668766021728516 4.02467489242553711 -0.905933201313018799 -0.235748976469039917 -0.351720660924911499
-5.32700538635253906 0.260451555252075195 0.000300000014249235392 -0.213973566889762878 -0.192623913288116455 -0.957659244537353516
-4.13325595855712891 5.49970006942749023 4.14487600326538086 -0.240739405155181885 0.936163067817687988 -0.256209403276443481
-5.49970006942749023 5.03506088256835938 3.6736149787902832 -0.860078692436218262 0.415371745824813843 -0.296193987131118774
-0.000300000014249235392 1.3890005350112915 1.61425435543060303 0.834110915660858154 -0.231659278273582458 -0.500592529773712158
-3.00389909744262695 5.49970006942749023 5.12234067916870117 0.00447568250820040703 0.993813633918762207 -0.110969774425029755
-5.49970006942749023 1.3992621898651123 1.81903362274169922 -0.843409359455108643 -0.128587499260902405 -0.52165687084197998
-0.000300000014249235392 2.57001209259033203 3.9408719539642334 0.938197135925292969 -0.171484798192977905 -0.300631016492843628
-0.000300000014249235392 2.60119438171386719 3.29998493194580078 0.905117273330688477 -0.155363857746124268 -0.395758450031280518
-0.597875118255615234 5.14885234832763672 0.000300000014249235392 -0.434470206499099731 0.697815656661987305 -0.569463789463043213
-0.59759521484375 5.14858436584472656 0.000300000014249235392 0.161284714937210083 0.310125887393951416 -0.936914682388305664
-0.000300000014249235392 3.13514304161071777 3.45432114601135254 0.890286087989807129 -0.0273605436086654663 -0.454578936100006104
-3.55563592910766602 5.49970006942749023 4.36064910888671875 -0.344295650720596313 0.903200924396514893 -0.256297647953033447
-0.000300000014249235392 1.05412542819976807 2.41224837303161621 0.862459182739257812 -0.274995595216751099 -0.424901872873306274
-5.49970006942749023 0.827993035316467285 5.34928226470947266 -0.946680784225463867 -0.320957452058792114 -0.0279581788927316666
-0.000300000014249235392 1.21436440944671631 3.53858447074890137 0.931357204914093018 -0.19786563515663147 -0.305651634931564331
-0.000300000014249235392 3.25069499015808105 5.09742307662963867 0.955733299255371094 0.285088866949081421 -0.072788141667842865
-5.49970006942749023 -0.670722246170043945 3.1758112907409668 -0.811855435371398926 -0.448697596788406372 -0.373578935861587524
-1.80736088752746582 5.49970006942749023 2.82195258140563965 0.28505977988243103 0.856799602508544922 -0.42969202995300293
-0.0117006301879882812 3.88573098182678223 0.000300000014249235392 0.169546037912368774 0.45453488826751709 -0.874444007873535156
-0.0116846561431884766 3.88560152053833008 0.000300000014249235392 0.239687159657478333 0.0848395600914955139 -0.967136085033416748
-2.68145036697387695 5.49970006942749023 3.29760074615478516 0.0186959821730852127 0.939989328384399414 -0.340691238641738892
-2.79018115997314453 2.96845340728759766 3.3002924919128418 0.0926004126667976379 0.393677085638046265 -0.914572834968566895
-2.79012870788574219 2.96837425231933594 3.3002924919128418 0.262601017951965332 0.157599776983261108 -0.951946914196014404
-2.17680168151855469 5.49970006942749023 4.31217098236083984 0.178491547703742981 0.955932259559631348 -0.23309694230556488
-0.000300000014249235392 2.91527938842773438 2.62574410438537598 0.829752802848815918 0.0161097981035709381 -0.557898402214050293
-5.49970006942749023 0.449464321136474609 1.56927955150604248 -0.770080506801605225 -0.269793778657913208 -0.578089356422424316
-5.49970006942749023 2.6560516357421875 5.27171802520751953 -0.999090135097503662 0.0228302627801895142 -0.0360231027007102966
-5.49970006942749023 3.33636140823364258 4.28140401840209961 -0.961593866348266602 0.0926211848855018616 -0.258376866579055786
-0.000300000014249235392 2.63578534126281738 2.30752825736999512 0.833078563213348389 0.168787926435470581 -0.52677386999130249
-5.49970006942749023 1.42388451099395752 4.70006370544433594 -0.959258675575256348 -0.241068050265312195 -0.147339776158332825
-5.49970006942749023 0.461716651916503906 5.04798316955566406 -0.864091873168945312 -0.492844432592391968 -0.102223068475723267
-2.86030364036560059 2.97680926322937012 3.3002924919128418 0.209798693656921387 0.160820230841636658 -0.964427947998046875
-5.49970006942749023 4.21572780609130859 4.85221576690673828 -0.93510890007019043 0.339409589767456055 -0.101845197379589081
-3.85890817642211914 0.590151548385620117 0.000300000014249235392 -0.0566247589886188507 -0.305552512407302856 -0.950489997863769531
-2.98057746887207031 3.52906680107116699 3.3002922534942627 0.491241306066513062 0.186518266797065735 -0.850818932056427002
-0.000300000014249235392 0.128629446029663086 2.25734066963195801 0.794404149055480957 -0.359775960445404053 -0.489370286464691162
-5.49970006942749023 0.409534215927124023 4.95279502868652344 -0.936056554317474365 -0.32519194483757019 -0.134343996644020081
-5.25626850128173828 1.21342813968658447 5.49970006942749023 -0.531387567520141602 -0.727474510669708252 0.43405991792678833
-2.89771032333374023 5.49970006942749023 4.86930418014526367 0.0934830829501152039 0.743130862712860107 -0.662583887577056885
-2.89774203300476074 5.49970006942749023 4.869537353515625 0.0195728186517953873 0.993224501609802246 -0.114550456404685974
-2.91664361953735352 5.49970006942749023 5.41706562042236328 -0.130834460258483887 0.991359114646911621 -0.00945731159299612045
-3.18007016181945801 3.60612154006958008 3.3002922534942627 -0.134324610233306885 0.310133874416351318 -0.941155612468719482
-5.49970006942749023 5.41487407684326172 4.62337684631347656 -0.856422901153564453 0.498898476362228394 -0.13281625509262085
-0.000300000014249235392 5.36388015747070312 3.78183627128601074 0.826573371887207031 0.493753045797348022 -0.270156145095825195
-5.49970006942749023 -0.748657941818237305 3.22494840621948242 -0.81185150146484375 -0.494192957878112793 -0.310918599367141724
-2.26883172988891602 1.89496326446533203 2.85192060470581055 0.431263357400894165 -0.184345781803131104 -0.883192300796508789
-0.000300000014249235392 2.18162441253662109 4.25928688049316406 0.927328944206237793 -0.165331453084945679 -0.335747629404067993
-0.000300000014249235392 3.75603103637695312 2.4291224479675293 0.840871214866638184 0.225523918867111206 -0.492010563611984253
-5.49970006942749023 3.4949793815612793 2.42014741897583008 -0.845047533512115479 0.280728399753570557 -0.455067217350006104
-0.000300000014249235392 2.96210122108459473 4.63101005554199219 0.983934521675109863 0.0509397462010383606 -0.171108096837997437
-5.49970006942749023 2.32005000114440918 5.39791154861450195 -0.976349115371704102 -0.214971020817756653 -0.0230194926261901855
-0.000300000014249235392 1.39920461177825928 1.8701026439666748 0.825396895408630371 -0.0340498052537441254 -0.563525021076202393
-5.49970006942749023 -0.816810846328735352 4.70520305633544922 -0.822009146213531494 -0.555061817169189453 -0.127307787537574768
-5.49970006942749023 0.585380792617797852 1.28573775291442871 -0.803435802459716797 -0.334733694791793823 -0.492386281490325928
-5.49970006942749023 -0.480717182159423828 3.81584787368774414 -0.801581501960754395 -0.520488440990447998 -0.294208884239196777
-1.46703112125396729 2.68918323516845703 0.000300000014249235392 0.175196081399917603 -0.0957217961549758911 -0.979869186878204346
-2.9240868091583252 5.49970006942749023 4.67297506332397461 0.12593407928943634 0.695281803607940674 -0.707618415355682373
-2.92413854598999023 5.49970006942749023 4.67323398590087891 0.00881562940776348114 0.98809969425201416 -0.153561726212501526
-0.000300000014249235392 2.60368776321411133 4.63957881927490234 0.976081609725952148 -0.0488826408982276917 -0.211837559938430786
-0.000300000014249235392 3.50162029266357422 4.35319375991821289 0.911646842956542969 0.338000565767288208 -0.233785316348075867
-3.63243794441223145 2.93515729904174805 3.3002924919128418 -0.152585476636886597 -0.00555763253942131996 -0.988274693489074707
-0.000300000014249235392 3.44068074226379395 4.10388517379760742 0.946053206920623779 0.0434771925210952759 -0.321081012487411499
-5.49970006942749023 -0.335689783096313477 1.7227933406829834 -0.781784713268280029 -0.31510654091835022 -0.538071095943450928
-0.000300000014249235392 1.5443568229675293 3.6030418872833252 0.881155729293823242 -0.212047696113586426 -0.422611325979232788
-5.49970006942749023 2.09334206581115723 4.40083694458007812 -0.940641164779663086 -0.0684216320514678955 -0.332434326410293579
-3.11261940002441406 5.49970006942749023 3.43988895416259766 -0.0565353557467460632 0.940195322036743164 -0.335911303758621216
-3.18635129928588867 3.78940439224243164 3.3002922534942627 -0.397864997386932373 -0.176319286227226257 -0.900341570377349854
-3.18623113632202148 3.78956270217895508 3.3002922534942627 -0.0383949168026447296 0.315606147050857544 -0.948113143444061279
-0.000300000014249235392 4.41507053375244141 3.79581546783447266 0.924543499946594238 0.196388363838195801 -0.326574474573135376
-5.49970006942749023 5.46933460235595703 4.52904510498046875 -0.882941722869873047 0.43619188666343689 -0.173639163374900818
-5.49970006942749023 -0.581256389617919922 4.6809234619140625 -0.834987282752990723 -0.53031456470489502 -0.146842107176780701
-0.000300000014249235392 1.78922557830810547 3.46764063835144043 0.918108105659484863 0.0205492209643125534 -0.395796835422515869
-2.11502432823181152 5.49970006942749023 3.2327113151550293 -0.0316147729754447937 0.928315520286560059 -0.370446741580963135
-0.000300000014249235392 2.97770142555236816 3.52131366729736328 0.891813099384307861 0.18914349377155304 -0.410967200994491577
-5.49970006942749023 2.75983071327209473 2.4655909538269043 -0.848136305809020996 0.175602644681930542 -0.49982839822769165
-0.000300000014249235392 1.19837486743927002 4.21404933929443359 0.911182940006256104 -0.311831742525100708 -0.269270449876785278
-0.000300000014249235392 2.23637652397155762 4.27875518798828125 0.954159021377563477 -0.00828338786959648132 -0.299185574054718018
-0.000300000014249235392 1.74761700630187988 2.45088458061218262 0.802569925785064697 -0.143592864274978638 -0.579018652439117432
-3.62932586669921875 4.08601236343383789 3.30029201507568359 -0.329116970300674438 0.214744046330451965 -0.919547140598297119
-1.34879648685455322 5.49970006942749023 4.08642959594726562 0.331719666719436646 0.913931846618652344 -0.233860045671463013
-2.294769287109375 5.49970006942749023 5.35972404479980469 -0.424073457717895508 0.615873634815216064 -0.663973867893218994
-2.29456520080566406 5.49970006942749023 5.36003971099853516 -0.00760270887985825539 0.999655246734619141 -0.0251295007765293121
-5.49970006942749023 2.42336034774780273 2.28297758102416992 -0.849939227104187012 0.12737920880317688 -0.511251270771026611
-0.000300000014249235392 5.40017509460449219 3.97020578384399414 0.853859364986419678 0.471247494220733643 -0.221020251512527466
-5.49970006942749023 4.01862525939941406 3.75348091125488281 -0.837188601493835449 0.418700516223907471 -0.351859390735626221
-5.49970006942749023 1.63718926906585693 3.08504056930541992 -0.881852149963378906 -0.148125126957893372 -0.447655707597732544
-0.000300000014249235392 0.223026752471923828 4.37901449203491211 0.942497730255126953 -0.265957683324813843 -0.202396869659423828
-5.49970006942749023 2.80480384826660156 2.38394713401794434 -0.85669398307800293 0.0127793103456497192 -0.515666604042053223
-3.99858999252319336 -0.00902891159057617188 0.000300000014249235392 -0.215166285634040833 -0.248924121260643005 -0.944319963455200195
-5.49970006942749023 3.03371262550354004 4.60508155822753906 -0.95510101318359375 0.246926218271255493 -0.16373617947101593
-5.29902267456054688 5.49970006942749023 2.90895962715148926 -0.718726158142089844 0.241518333554267883 -0.651998221874237061
-5.29822921752929688 5.49970006942749023 2.9096367359161377 -0.290207386016845703 0.875268936157226562 -0.386890023946762085
-0.000300000014249235392 3.22382903099060059 5.04787015914916992 0.989135622978210449 0.108648784458637238 -0.0990257412195205688
-3.60363578796386719 0.349366664886474609 0.000300000014249235392 -0.123665846884250641 -0.975536465644836426 -0.181756213307380676
-3.60345578193664551 0.350877285003662109 0.000300000014249235392 -0.0748192667961120605 -0.30575639009475708 -0.949165463447570801
-5.49970006942749023 0.758575320243835449 2.56609010696411133 -0.829696178436279297 -0.372398108243942261 -0.415841162204742432
-0.000300000014249235392 2.23579502105712891 2.31872367858886719 0.86166226863861084 -0.0204190146178007126 -0.507071077823638916
-4.12819004058837891 5.49970006942749023 4.52831125259399414 -0.273194313049316406 0.95019829273223877 -0.149960234761238098
-0.000300000014249235392 2.20723772048950195 4.28082180023193359 0.922088146209716797 -0.18935006856918335 -0.33749052882194519
-3.44932937622070312 5.18134117126464844 0.000300000014249235392 0.0921620801091194153 -0.247810676693916321 -0.964414894580841064
-3.56779694557189941 5.49970006942749023 1.23874747753143311 -0.180748879909515381 0.793590545654296875 -0.58098524808883667
-1.78813672065734863 5.49970006942749023 0.647385120391845703 0.05215425044298172 0.77865445613861084 -0.625281631946563721
-3.56493377685546875 2.68160533905029297 1.10372710227966309 0.0873116999864578247 0.699714720249176025 -0.709066987037658691
-3.56506013870239258 2.68156623840332031 1.1037757396697998 -0.207984626293182373 0.697782695293426514 -0.68545001745223999
-4.31408786773681641 5.49970006942749023 3.13121819496154785 -0.335711628198623657 0.83270561695098877 -0.44033968448638916
-5.49970006942749023 5.06452083587646484 5.19991397857666016 -0.843688249588012695 0.535298526287078857 -0.0405667275190353394
-2.28009963035583496 5.49970006942749023 4.9280848503112793 0.314911693334579468 0.938745975494384766 -0.139952391386032104
-2.40314960479736328 2.44587182998657227 1.65029633045196533 0.0809475556015968323 0.0899891480803489685 -0.992647707462310791
-2.40313839912414551 2.44588899612426758 1.65029633045196533 0.116351306438446045 0.144319653511047363 -0.982666850090026855
-0.000300000014249235392 0.117165565490722656 2.59671640396118164 0.824110984802246094 -0.344469994306564331 -0.449645936489105225
-0.000300000014249235392 -0.622081279754638672 1.93968319892883301 0.790504336357116699 -0.431511789560317993 -0.434626847505569458
-5.49970006942749023 2.06929111480712891 5.4618840217590332 -0.971986293792724609 -0.235033735632896423 -0.00133062468376010656
-0.000300000014249235392 0.859427094459533691 1.61953520774841309 0.797095179557800293 -0.231784716248512268 -0.557597577571868896
-0.151376724243164062 5.49970006942749023 0.75924229621887207 0.346658498048782349 0.798059225082397461 -0.49287867546081543
-5.49970006942749023 2.24842023849487305 4.67635679244995117 -0.980252861976623535 0.0275852382183074951 -0.195814743638038635
-0.802104592323303223 5.49970006942749023 5.46250343322753906 0.435992807149887085 0.899949908256530762 -0.00068206078140065074
-5.49970006942749023 2.1516115665435791 5.15033054351806641 -0.983530998229980469 -0.139146998524665833 -0.115346305072307587
-0.000300000014249235392 1.90022897720336914 2.96771383285522461 0.835878610610961914 -0.255995512008666992 -0.485564887523651123
-0.239645719528198242 4.73318862915039062 0.000300000014249235392 0.338643968105316162 0.253730326890945435 -0.906058073043823242
-4.0545501708984375 -0.0257809162139892578 0.000300000014249235392 -0.195659473538398743 -0.190578341484069824 -0.961975693702697754
-2.3108217716217041 5.49970006942749023 1.91761767864227295 0.346206903457641602 0.586508333683013916 -0.732221722602844238
-2.31096673011779785 5.49970006942749023 1.91779220104217529 0.08871421217918396 0.828853011131286621 -0.55238795280456543
-0.814960241317749023 4.68865966796875 0.000300000014249235392 -0.463267147541046143 0.456477940082550049 -0.759612679481506348
-0.814736604690551758 4.6885676383972168 0.000300000014249235392 0.129482999444007874 0.279358714818954468 -0.951416194438934326
-4.57491779327392578 5.49970006942749023 5.22037744522094727 -0.428695082664489746 0.821815431118011475 0.375286489725112915
-4.57491159439086914 5.49970006942749023 5.22022342681884766 -0.447118043899536133 0.892991423606872559 -0.0514939092099666595
-0.000300000014249235392 1.43954205513000488 1.92871451377868652 0.855477452278137207 -0.093327648937702179 -0.509360611438751221
-5.49970006942749023 2.78682899475097656 4.06195449829101562 -0.943387329578399658 -0.0443711318075656891 -0.328711897134780884
-3.1530463695526123 0.76175224781036377 0.000300000014249235392 -0.110481329262256622 -0.258972674608230591 -0.959545254707336426
-2.6462242603302002 5.49970006942749023 4.22303628921508789 -0.348977357149124146 0.296801060438156128 -0.888889133930206299
-2.64587712287902832 5.49970006942749023 4.22382307052612305 -0.0168969593942165375 0.937107324600219727 -0.348631978034973145
-0.000300000014249235392 3.96133685111999512 4.86381626129150391 0.927974820137023926 0.34961053729057312 -0.12897743284702301
-1.93384683132171631 5.49970006942749023 5.03793811798095703 0.904780745506286621 0.411868870258331299 -0.108331948518753052
-1.93443965911865234 5.49970006942749023 5.03799343109130859 0.214884534478187561 0.973642110824584961 -0.0764567926526069641
-5.49970006942749023 3.39321804046630859 5.29365158081054688 -0.835485935211181641 0.070949256420135498 0.544912576675415039
-0.000300000014249235392 5.12753105163574219 4.6640172004699707 0.896878480911254883 0.409230619668960571 -0.167747676372528076
-5.49970006942749023 0.22302556037902832 4.69070816040039062 -0.841087639331817627 -0.50837022066116333 -0.184746488928794861
-0.000300000014249235392 -0.511774301528930664 4.83678054809570312 0.86164778470993042 -0.499128848314285278 -0.0918335467576980591
-5.49970006942749023 4.49935531616210938 4.95764446258544922 -0.924696803092956543 0.36565166711807251 -0.10599353164434433
-0.000300000014249235392 3.73806285858154297 4.94563674926757812 0.940884947776794434 0.302105873823165894 -0.153191074728965759
-5.49970006942749023 3.99341368675231934 4.92466259002685547 -0.881401896476745605 0.363001525402069092 0.302258968353271484
-5.44690895080566406 5.49970006942749023 3.47846245765686035 -0.312773138284683228 0.891260862350463867 -0.328370153903961182
-2.88699674606323242 5.49970006942749023 4.11573982238769531 0.288150250911712646 0.954557657241821289 -0.0760860443115234375
-2.90390181541442871 5.49970006942749023 4.35283041000366211 0.130789399147033691 0.905304312705993652 -0.404126465320587158
-2.90397834777832031 5.49970006942749023 4.3529047966003418 -0.107791498303413391 0.975032806396484375 -0.194144353270530701
-0.000300000014249235392 3.28327178955078125 4.60352849960327148 0.952919840812683105 0.13599058985710144 -0.271017283201217651
-0.000300000014249235392 4.35265874862670898 4.64167022705078125 0.912914037704467773 0.36023634672164917 -0.191879138350486755
-5.49970006942749023 1.48359692096710205 3.49905014038085938 -0.881233811378479004 -0.200701117515563965 -0.427955687046051025
-0.000300000014249235392 -0.320068120956420898 5.08153820037841797 0.919492661952972412 -0.387764513492584229 -0.0645900070667266846
-5.49970006942749023 1.44223713874816895 4.03195667266845703 -0.938816428184509277 -0.202707484364509583 -0.278448015451431274
-3.47768449783325195 5.21154880523681641 0.000300000014249235392 -0.196488469839096069 -0.201458409428596497 -0.959586739540100098
-3.19669890403747559 5.49970006942749023 1.37232673168182373 -0.15704798698425293 0.827781736850738525 -0.538621604442596436
-2.49266266822814941 4.21852302551269531 0.000300000014249235392 -0.0466583520174026489 0.126950740814208984 -0.990810990333557129
-5.49970006942749023 4.41206455230712891 4.40022182464599609 -0.894650578498840332 0.407588779926300049 -0.182952657341957092
-4.57419013977050781 5.49970006942749023 4.31290054321289062 -0.716913700103759766 0.59167557954788208 -0.368720531463623047
-4.57393312454223633 5.49970006942749023 4.3130192756652832 -0.32653239369392395 0.921574234962463379 -0.209946602582931519
-1.90391814708709717 5.49970006942749023 5.38179779052734375 0.186313465237617493 0.982264101505279541 -0.0210846848785877228
-0.000300000014249235392 -0.344289541244506836 3.67871856689453125 0.835210025310516357 -0.494174540042877197 -0.241279199719429016
-3.61265683174133301 3.21360516548156738 3.3002922534942627 -0.184990793466567993 0.4323597252368927 -0.882521152496337891
-3.61269068717956543 3.21348071098327637 3.3002922534942627 -0.305735170841217041 0.0716634765267372131 -0.949415802955627441
-2.43008852005004883 5.49970006942749023 5.26138210296630859 0.225907772779464722 0.76060783863067627 0.608639001846313477
-2.43021106719970703 5.49970006942749023 5.26112651824951172 -0.110644221305847168 0.992595911026000977 -0.0501124970614910126
-5.49970006942749023 2.58915901184082031 2.32863545417785645 -0.850265264511108398 0.110562361776828766 -0.514611363410949707
-0.000300000014249235392 2.46412301063537598 4.64929437637329102 0.965979099273681641 0.0967313721776008606 -0.239848688244819641
-1.04007470607757568 5.49970006942749023 4.49103832244873047 0.435040473937988281 0.874030709266662598 -0.216356322169303894
-5.49970006942749023 -0.670431137084960938 4.99347639083862305 -0.881247043609619141 -0.467206180095672607 -0.0715678781270980835
-0.000300000014249235392 5.08118343353271484 2.91021227836608887 0.879309177398681641 0.285360157489776611 -0.381293654441833496
-5.49970006942749023 2.96581888198852539 3.89900398254394531 -0.959679603576660156 0.012569560669362545 -0.280814796686172485
-0.000300000014249235392 3.18942475318908691 2.96174025535583496 0.887212634086608887 0.217667818069458008 -0.406785428524017334
-5.49970006942749023 2.1502685546875 4.34964084625244141 -0.966472983360290527 -0.12043260782957077 -0.226772859692573547
-0.000300000014249235392 3.45596480369567871 4.71754837036132812 0.962524056434631348 0.144538804888725281 -0.229469031095504761
-0.000300000014249235392 -0.874228477478027344 5.19237565994262695 0.899040460586547852 -0.43531954288482666 -0.0471507199108600616
-1.73983597755432129 5.49970006942749023 4.30854129791259766 0.307142764329910278 0.920174300670623779 -0.242780759930610657
-5.49970006942749023 5.08420610427856445 3.51252841949462891 -0.648263037204742432 0.644630074501037598 -0.40522468090057373
-1.17295658588409424 5.49970006942749023 2.62735939025878906 -0.351567983627319336 0.582064688205718994 -0.733212590217590332
-1.17265880107879639 5.49970006942749023 2.62759900093078613 0.33323320746421814 0.85655975341796875 -0.394031673669815063
-5.49970006942749023 0.69115447998046875 3.7969517707824707 -0.918113231658935547 -0.281650692224502563 -0.278820604085922241
-3.88584804534912109 5.49970006942749023 4.36827278137207031 -0.103410832583904266 0.958834052085876465 -0.264468222856521606
-4.5634760856628418 5.49970006942749023 4.93895435333251953 -0.31931602954864502 0.943108677864074707 -0.0926458388566970825
-2.62978816032409668 5.49970006942749023 5.33293724060058594 0.211924180388450623 0.976738452911376953 -0.0327118560671806335
-0.000300000014249235392 3.82621669769287109 5.27905368804931641 0.98112255334854126 0.189256981015205383 -0.0397528074681758881
-5.49970006942749023 3.67781305313110352 4.33811235427856445 -0.869921088218688965 0.417586624622344971 -0.262409389019012451
-5.49970006942749023 3.46911096572875977 4.60419654846191406 -0.970927238464355469 0.151746988296508789 0.185129940509796143
-3.93295574188232422 0.749961614608764648 0.000300000014249235392 -0.0249759238213300705 -0.215636327862739563 -0.976154208183288574
-3.66216778755187988 5.49970006942749023 5.24910306930541992 0.122454188764095306 0.717642307281494141 -0.685561478137969971
-3.66226816177368164 5.49970006942749023 5.24937820434570312 -0.161782145500183105 0.986114144325256348 -0.0374885126948356628
-0.854501605033874512 2.51993131637573242 0.000300000014249235392 0.171759143471717834 -0.0957845449447631836 -0.980471372604370117
-5.49970006942749023 0.218504428863525391 3.77386188507080078 -0.90932929515838623 -0.276976972818374634 -0.310489773750305176
-1.47401463985443115 2.52287006378173828 0.000300000014249235392 0.0884206295013427734 -0.0282263923436403275 -0.995683193206787109
-4.65125894546508789 1.83684861660003662 0.000300000014249235392 -0.212385460734367371 -0.147815629839897156 -0.965941429138183594
-1.18607997894287109 2.78757476806640625 5.49970006942749023 0.878869831562042236 -0.188058078289031982 0.438431620597839355
-5.49970006942749023 2.8537743091583252 5.36432027816772461 -0.990504980087280273 0.13252866268157959 -0.0365515835583209991
-5.49970006942749023 3.43797945976257324 3.94321393966674805 -0.943540036678314209 0.103782512247562408 -0.31458127498626709
-1.60218513011932373 5.49970006942749023 4.53783416748046875 0.0976912528276443481 0.980443000793457031 -0.170844674110412598
-2.63213062286376953 5.49970006942749023 3.06596493721008301 -0.334128886461257935 0.776357293128967285 -0.534441113471984863
-2.63203287124633789 5.49970006942749023 3.06601548194885254 -0.0922552496194839478 0.883484303951263428 -0.45928683876991272
-0.000300000014249235392 -0.395863056182861328 3.91003942489624023 0.898053169250488281 -0.370560914278030396 -0.237033963203430176
