ply
format ascii 1.0
element vertex 380
property float x
property float y
property float z
property float nx
property float ny
property float nz
end_header
-2.31231999397277832 1.28469252586364746 2.69704723358154297 0.684729576110839844 0.529699444770812988 -0.500563740730285645
-1.59677326679229736 1.5099252462387085 2.98888778686523438 -0.339296519756317139 0.209595143795013428 -0.917032063007354736
-1.2458871603012085 1.82526826858520508 2.66732454299926758 -0.856201648712158203 -0.238748490810394287 -0.458168059587478638
-1.53808760643005371 1.64593362808227539 2.98174524307250977 -0.443368464708328247 0.032368924468755722 -0.895754873752593994
-2.14295697212219238 2.20392179489135742 2.67289304733276367 0.43782469630241394 -0.775528192520141602 -0.454824715852737427
-2.10534381866455078 2.30400848388671875 2.3221287727355957 0.371505677700042725 -0.927041888236999512 0.0507635250687599182
-1.56079602241516113 2.10521388053894043 2.81257319450378418 -0.394655436277389526 -0.649845361709594727 -0.649575412273406982
-2.16230201721191406 1.57923007011413574 2.96955323219299316 0.487209439277648926 0.110712915658950806 -0.866238832473754883
-1.94413304328918457 1.81126201152801514 3.03092575073242188 0.157807290554046631 -0.230765819549560547 -0.960127115249633789
-0.00300000002607703209 1.77770614624023438 2.79061770439147949 0.995740652084350586 -0.00308302044868469238 0.0921487808227539062
-2.01705360412597656 1.36355710029602051 2.95930957794189453 0.248284444212913513 0.421886265277862549 -0.8719901442527771
-1.6865544319152832 5.49700021743774414 5.48860073089599609 0.493284374475479126 0.869751334190368652 -0.0142521895468235016
-2.40231442451477051 1.94010007381439209 2.66034555435180664 0.794765830039978027 -0.402922749519348145 -0.453872799873352051
-1.88522183895111084 2.25371193885803223 2.72044253349304199 0.0667945444583892822 -0.839470386505126953 -0.539284706115722656
-2.12619566917419434 1.85136306285858154 2.96482229232788086 0.413575261831283569 -0.26777118444442749 -0.870203495025634766
-2.13123130798339844 2.27609920501708984 2.50685405731201172 0.899584650993347168 -0.200815021991729736 0.387841135263442993
-2.48988652229309082 1.7445141077041626 2.12450337409973145 0.797277331352233887 -0.570366144180297852 0.197563573718070984
-2.14798426628112793 2.2480931282043457 2.57223248481750488 0.424761354923248291 -0.846048712730407715 -0.322148263454437256
-1.92120778560638428 1.74901926517486572 3.04512929916381836 0.149117708206176758 -0.120559416711330414 -0.981442570686340332
-5.49700021743774414 1.75016403198242188 4.10353899002075195 -0.904576420783996582 0.0222487263381481171 0.42573094367980957
-5.49700021743774414 0.233073234558105469 2.50680685043334961 -0.93038254976272583 -0.365745425224304199 0.0248745828866958618
-2.38475966453552246 1.82883739471435547 2.75861430168151855 0.785696864128112793 -0.219041228294372559 -0.57853388786315918
-4.56736373901367188 4.10166263580322266 2.71814227104187012 0.477117419242858887 -0.878677070140838623 0.0168992076069116592
-1.34841382503509521 2.00171804428100586 2.70525813102722168 -0.495914340019226074 -0.512089729309082031 -0.701308131217956543
-1.58218467235565186 2.11004781723022461 2.82091546058654785 -0.368816673755645752 -0.657299578189849854 -0.65721505880355835
-0.00300000002607703209 3.56375741958618164 3.71339035034179688 0.622286558151245117 0.600545287132263184 0.502100229263305664
-0.00300000002607703209 2.47363185882568359 0.134850025177001953 0.841730833053588867 -0.536104679107666016 0.0638829991221427917
-1.75282192230224609 1.95010137557983398 2.98541784286499023 -0.133359313011169434 -0.429209649562835693 -0.893305361270904541
-1.70709466934204102 2.33584117889404297 2.26174163818359375 -0.203175053000450134 -0.973609209060668945 0.10394752025604248
-2.17076206207275391 1.68141043186187744 2.97104907035827637 0.499572962522506714 -0.0563999339938163757 -0.864433884620666504
-1.32436120510101318 1.53340709209442139 2.7976529598236084 -0.41556897759437561 0.0914468318223953247 -0.9049530029296875
-2.20987677574157715 1.52148985862731934 2.93020105361938477 0.534805893898010254 0.203974932432174683 -0.81998598575592041
-1.80923771858215332 1.76709020137786865 3.04623627662658691 -0.0595787614583969116 -0.143652990460395813 -0.987833082675933838
-5.49700021743774414 1.9084925651550293 5.12552404403686523 -0.800322651863098145 0.0523770004510879517 0.597278177738189697
-2.94816184043884277 2.15986967086791992 5.49700021743774414 -0.325939387083053589 0.144070923328399658 0.934348583221435547
-0.00300000002607703209 0.197025299072265625 0.403737783432006836 0.828632473945617676 -0.259148508310317993 -0.496195942163467407
-4.36522912979125977 5.49700021743774414 5.48558139801025391 -0.797499716281890869 0.603291988372802734 -0.00574739929288625717
-2.2061913013458252 2.2250058650970459 2.17622995376586914 0.495880186557769775 -0.86722952127456665 0.0448988825082778931
-1.12685501575469971 5.49700021743774414 3.52095198631286621 0.178285092115402222 0.940154314041137695 0.29038664698600769
-1.34578168392181396 0.0351340770721435547 5.49700021743774414 0.366449564695358276 -0.75454789400100708 0.54440075159072876
-3.79445266723632812 2.76669025421142578 5.49700021743774414 -0.508511066436767578 0.285944044589996338 0.812189817428588867
-2.2461860179901123 1.60124897956848145 2.92018222808837891 0.565933883190155029 0.0974054634571075439 -0.818676352500915527
-2.4901883602142334 1.65265178680419922 2.60372567176818848 0.805447041988372803 -0.0482138320803642273 -0.590703487396240234
-3.41553282737731934 5.49699974060058594 2.07715559005737305 -0.374642431735992432 0.924047470092773438 -0.0760186240077018738
-1.63049972057342529 1.72230446338653564 3.01743149757385254 -0.303385019302368164 -0.0881112217903137207 -0.948785603046417236
-1.74845075607299805 2.3158257007598877 2.57223773002624512 -0.109696038067340851 -0.940356612205505371 -0.322019129991531372
-1.60825622081756592 1.39940881729125977 2.9551548957824707 -0.317085802555084229 0.369639128446578979 -0.873397767543792725
-3.83132624626159668 -0.384736299514770508 5.49700021743774414 -0.173226878046989441 -0.857547461986541748 0.484360188245773315
-5.11673259735107422 2.7018125057220459 5.49700021743774414 -0.704782962799072266 0.219075977802276611 0.674748897552490234
-1.89317381381988525 2.25530219078063965 1.99956750869750977 0.0679529234766960144 -0.848349928855895996 0.525056958198547363
-1.68273544311523438 1.03825891017913818 2.60187792778015137 -0.0604154020547866821 0.786337792873382568 -0.614835739135742188
-2.14980840682983398 2.23641347885131836 2.60018205642700195 0.463012874126434326 -0.807083010673522949 -0.366382569074630737
-2.08799147605895996 2.03121042251586914 2.8948671817779541 0.313486695289611816 -0.517614006996154785 -0.79611670970916748
-2.05099177360534668 1.91422498226165771 2.97284293174743652 0.292329311370849609 -0.358423590660095215 -0.886609315872192383
-2.47417902946472168 1.93306624889373779 2.26598262786865234 0.909040093421936035 -0.402068555355072021 0.109485983848571777
-2.28971624374389648 1.91395533084869385 2.82710409164428711 0.626284003257751465 -0.357316583395004272 -0.692887663841247559
-3.83808755874633789 -0.475480169057846069 0.903878152370452881 0.339785993099212646 -0.215205371379852295 0.915550172328948975
-3.23557806015014648 1.30696868896484375 5.49700021743774414 -0.401521027088165283 -0.107505738735198975 0.90951848030090332
-2.0909726619720459 2.09040284156799316 2.84697508811950684 0.309271126985549927 -0.570489943027496338 -0.760849952697753906
-3.1364600658416748 5.49700021743774414 1.29951596260070801 -0.532726705074310303 0.82302170991897583 0.19707237184047699
-1.27272629737854004 2.00648617744445801 2.17004585266113281 -0.785886406898498535 -0.617846429347991943 -0.0254630744457244873
-1.92641639709472656 1.17084252834320068 2.83703732490539551 0.124558359384536743 0.707242310047149658 -0.69591212272644043
-2.29921054840087891 1.95567953586578369 2.7920377254486084 0.663652479648590088 -0.4178275465965271 -0.620472073554992676
-1.78672575950622559 1.05675363540649414 2.6832888126373291 -0.0640800148248672485 0.886459469795227051 -0.458348631858825684
-1.79184889793395996 2.19855666160583496 2.7977147102355957 -0.0519286245107650757 -0.782349348068237305 -0.620671391487121582
-2.20432281494140625 2.24277663230895996 2.47655534744262695 0.515902340412139893 -0.83912205696105957 -0.172391831874847412
-2.28706669807434082 1.9466557502746582 2.81037259101867676 0.637591004371643066 -0.403410255908966064 -0.656306207180023193
-0.935494303703308105 1.85899698734283447 0.244953632354736328 -0.860545039176940918 0.43475458025932312 0.265425384044647217
-1.5198286771774292 1.11858510971069336 2.6318366527557373 -0.265885114669799805 0.534376919269561768 -0.802338123321533203
-2.03534793853759766 1.16038382053375244 2.7923438549041748 0.284775823354721069 0.729656100273132324 -0.621695041656494141
-2.03562498092651367 1.93303048610687256 2.96980762481689453 0.285618752241134644 -0.404702544212341309 -0.868698954582214355
-2.18329262733459473 2.22125411033630371 2.59055137634277344 0.506707668304443359 -0.798763096332550049 -0.324383944272994995
-3.65596485137939453 5.24539661407470703 0.00300000002607703209 -0.421135246753692627 -0.280155658721923828 -0.862645864486694336
-2.59442138671875 5.49700021743774414 1.17103981971740723 0.381661772727966309 0.922591328620910645 0.0562093406915664673
-2.4426722526550293 1.43576145172119141 2.09929537773132324 0.86729133129119873 0.319030255079269409 0.382132619619369507
-2.10335016250610352 1.06824827194213867 2.59209966659545898 0.403176665306091309 0.829270124435424805 -0.386987864971160889
-2.45198726654052734 1.72415339946746826 2.68355703353881836 0.745771408081054688 -0.0932897105813026428 -0.659637808799743652
-1.93539333343505859 2.16484999656677246 2.8298792839050293 0.126558795571327209 -0.708640217781066895 -0.694126725196838379
-1.79594302177429199 2.14597916603088379 2.85567498207092285 0.00803907960653305054 -0.550082623958587646 -0.835071563720703125
-2.41134977340698242 1.91366279125213623 2.66620898246765137 0.812572956085205078 -0.365327656269073486 -0.454159528017044067
-2.29950881004333496 2.14720249176025391 2.16343188285827637 0.665933132171630859 -0.736145377159118652 0.120926022529602051
-5.49700021743774414 1.75065696239471436 2.7126622200012207 -0.995372176170349121 0.0198964979499578476 0.0940151363611221313
-1.76459276676177979 1.41720867156982422 3.00269460678100586 -0.058035191148519516 0.256745398044586182 -0.964735031127929688
-2.03275489807128906 2.22787570953369141 2.71461105346679688 0.274316310882568359 -0.823278725147247314 -0.496953457593917847
-2.14085650444030762 1.94077599048614502 1.79480218887329102 0.446392714977264404 -0.426678717136383057 0.786561429500579834
-1.28764224052429199 2.0709834098815918 2.29827976226806641 -0.733968019485473633 -0.576801419258117676 -0.35859602689743042
-1.49612212181091309 1.56556951999664307 5.49700021743774414 0.116568475961685181 -0.0353577807545661926 0.992553055286407471
-5.49700021743774414 2.23233413696289062 5.41866302490234375 -0.761574208736419678 0.117626205086708069 0.637314319610595703
-1.42183208465576172 1.24615001678466797 1.65299606323242188 -0.00742328166961669922 0.177167624235153198 -0.984152674674987793
-1.78895628452301025 1.19470274448394775 2.8646547794342041 -0.0780651271343231201 0.680375814437866211 -0.728693842887878418
-2.64823198318481445 2.96314811706542969 2.93343019485473633 -0.496797084808349609 0.79895859956741333 0.338907122611999512
-2.20795369148254395 1.44559669494628906 2.90656900405883789 0.517239093780517578 0.326289832592010498 -0.791200757026672363
-2.88501334190368652 2.88969659805297852 2.63595676422119141 -0.667780876159667969 0.738065838813781738 0.0965842604637145996
-2.21957993507385254 2.19728398323059082 2.5905909538269043 0.545784652233123779 -0.773640215396881104 -0.321869581937789917
-2.08451700210571289 1.40880870819091797 2.95713162422180176 0.34038206934928894 0.349580228328704834 -0.872888147830963135
-2.48616719245910645 1.68770110607147217 2.61357831954956055 0.929904580116271973 -0.0247963964939117432 -0.366964221000671387
-2.40818095207214355 1.69365978240966797 2.75870919227600098 0.770048439502716064 -0.0481463819742202759 -0.636166095733642578
-0.00300000002607703209 5.3742523193359375 2.04784154891967773 0.362210959196090698 0.926175594329833984 0.104890294373035431
-1.74247074127197266 1.31078732013702393 2.94657516479492188 -0.0235272049903869629 0.385269612073898315 -0.922504186630249023
-1.83489060401916504 0.93951416015625 1.65299606323242188 0.517295658588409424 -0.238367393612861633 -0.82194054126739502
-1.25948441028594971 1.79265117645263672 2.70658564567565918 -0.703175008296966553 -0.243541926145553589 -0.668006181716918945
-5.48734855651855469 5.49700021743774414 3.96811366081237793 -0.508674860000610352 0.847019612789154053 -0.154297202825546265
-1.64076197147369385 1.03274047374725342 2.54979109764099121 -0.120540611445903778 0.82226860523223877 -0.556187272071838379
-3.65692281723022461 3.05991029739379883 3.58991837501525879 -0.696219205856323242 0.53923720121383667 0.473816573619842529
-2.38690567016601562 1.35849559307098389 2.65786981582641602 0.77462923526763916 0.43651050329208374 -0.457611382007598877
-5.49700021743774414 2.66237092018127441 2.37593531608581543 -0.967662692070007324 0.252221822738647461 -0.00364118441939353943
-5.49700021743774414 0.976565122604370117 3.12701892852783203 -0.963965058326721191 -0.181093230843544006 0.194875523447990417
-1.74162578582763672 1.41945278644561768 3.0003659725189209 -0.156474381685256958 0.368460536003112793 -0.916380167007446289
-1.99087560176849365 2.06997370719909668 1.81428217887878418 -0.265647351741790771 -0.964066922664642334 0.00253093685023486614
-1.51190423965454102 1.3577876091003418 2.8840172290802002 -0.318310827016830444 0.3239765465259552 -0.890908241271972656
-1.41651344299316406 1.18280565738677979 2.60921859741210938 -0.489773452281951904 0.458231121301651001 -0.741718411445617676
-1.67879772186279297 2.33319711685180664 2.42442440986633301 -0.194157674908638 -0.958071708679199219 -0.210716128349304199
-0.00299976160749793053 2.36551952362060547 5.22146034240722656 0.650962650775909424 -0.757551312446594238 -0.0486169122159481049
-1.97434437274932861 2.32667756080627441 2.51092028617858887 0.16422194242477417 -0.726759731769561768 -0.666971921920776367
-5.49700021743774414 0.624573707580566406 3.51006722450256348 -0.921445846557617188 -0.261881649494171143 0.28697657585144043
-3.43855404853820801 -0.11522548645734787 0.74832528829574585 0.29217982292175293 0.529465913772583008 -0.796427488327026367
-1.64667308330535889 1.89018583297729492 2.98538470268249512 -0.170409321784973145 -0.313266396522521973 -0.934250950813293457
-4.3150177001953125 -0.268256664276123047 5.49700021743774414 -0.257381230592727661 -0.807114958763122559 0.531338214874267578
-2.00396442413330078 1.54634702205657959 3.02457022666931152 0.22500494122505188 0.0450233891606330872 -0.97331690788269043
-2.27646327018737793 2.19598960876464844 2.45222115516662598 0.578242659568786621 -0.717575371265411377 -0.388228118419647217
-0.00300000002607703209 1.36288988590240479 3.76038551330566406 0.912444949150085449 0.121288374066352844 -0.390811175107955933
-2.28491783142089844 1.35902464389801025 2.79619431495666504 0.540814757347106934 0.163766682147979736 -0.825045406818389893
-2.15610623359680176 2.22640728950500488 2.10175108909606934 0.457706332206726074 -0.802501678466796875 0.382747918367385864
-2.03373456001281738 1.28494012355804443 2.90663480758666992 0.280487596988677979 0.544318258762359619 -0.790597498416900635
-2.43597292900085449 1.86641073226928711 2.65433430671691895 0.863094210624694824 -0.290659666061401367 -0.413019716739654541
-1.94477105140686035 2.01655197143554688 1.76804482936859131 0.257586300373077393 -0.598837852478027344 0.758315682411193848
-2.23299193382263184 1.50993442535400391 2.91140270233154297 0.547515451908111572 0.151176705956459045 -0.823026418685913086
-3.24002599716186523 0.869658350944519043 5.49700021743774414 -0.400542676448822021 -0.230593770742416382 0.886787474155426025
-2.34041571617126465 1.69028854370117188 2.8413689136505127 0.721045017242431641 -0.0592766627669334412 -0.690348029136657715
-3.51018714904785156 2.69576168060302734 2.64360713958740234 -0.842710554599761963 0.522737264633178711 0.128783613443374634
-2.28238296508789062 1.30685389041900635 2.75688743591308594 0.645229816436767578 0.496206223964691162 -0.58091127872467041
-1.56251156330108643 2.16603302955627441 2.74511361122131348 -0.397684633731842041 -0.710276246070861816 -0.580822408199310303
-1.64841711521148682 2.1169135570526123 1.65299630165100098 0.221519768238067627 0.506488144397735596 -0.833306074142456055
-2.18688416481018066 2.25531578063964844 2.46661162376403809 0.485686004161834717 -0.855440497398376465 -0.17980724573135376
-1.76184189319610596 1.66576170921325684 3.04974913597106934 -0.103481963276863098 -0.00190838705748319626 -0.994629502296447754
-3.43564701080322266 0.0972776487469673157 0.74832528829574585 -0.955749750137329102 0.244227811694145203 -0.163997262716293335
-1.53826844692230225 1.65256822109222412 2.9820246696472168 -0.445277512073516846 0.00507603678852319717 -0.895378232002258301
-1.39029455184936523 1.6214606761932373 1.83528375625610352 -0.652569890022277832 0.0198731161653995514 0.757467865943908691
-0.00300000002607703209 2.36742305755615234 3.28750348091125488 0.849534273147583008 0.316043078899383545 0.422384709119796753
-1.44110679626464844 2.21850776672363281 2.26140975952148438 -0.406166940927505493 -0.884323418140411377 -0.230218768119812012
-3.91788625717163086 4.30313634872436523 1.72295105457305908 0.0104531962424516678 -0.794353604316711426 -0.607365667819976807
-3.97142672538757324 -0.495352655649185181 0.74832528829574585 -0.883708596229553223 -0.0538713335990905762 -0.464926838874816895
-2.1711573600769043 1.35328972339630127 2.88420724868774414 0.472695469856262207 0.443761646747589111 -0.761337399482727051
-2.34118962287902832 1.99012982845306396 2.00282096862792969 0.73238980770111084 -0.477894008159637451 0.484997332096099854
-1.88233375549316406 1.11641168594360352 2.77916622161865234 0.0642766058444976807 0.781457066535949707 -0.620639562606811523
-2.36073708534240723 2.07753849029541016 2.56071305274963379 0.69976806640625 -0.539502203464508057 -0.468254327774047852
-1.69253909587860107 1.24165308475494385 2.8863983154296875 -0.202454924583435059 0.614094138145446777 -0.762823998928070068
-1.52170932292938232 1.95393955707550049 2.90076112747192383 -0.461246967315673828 -0.40342181921005249 -0.790254473686218262
-2.48758840560913086 1.88556325435638428 2.47911310195922852 0.767764449119567871 -0.393187761306762695 -0.505906105041503906
-5.49700021743774414 1.20433926582336426 2.36429834365844727 -0.991457223892211914 -0.13038305938243866 -0.00367236137390136719
-1.98886573314666748 1.44679141044616699 3.00199627876281738 0.197069674730300903 0.300113260746002197 -0.933325052261352539
-1.96205353736877441 1.87928366661071777 3.00882935523986816 0.179831862449645996 -0.318411111831665039 -0.930738925933837891
-2.20770931243896484 1.2035747766494751 2.72391676902770996 0.520589947700500488 0.660675644874572754 -0.540827035903930664
-4.599822998046875 4.09159374237060547 3.09468817710876465 -0.508535206317901611 -0.855623960494995117 0.0964346304535865784
-2.18805336952209473 1.13653886318206787 2.64204525947570801 0.457251906394958496 0.584447562694549561 -0.670329570770263672
-2.32842683792114258 1.1741795539855957 2.39942479133605957 0.690183043479919434 0.718661665916442871 -0.0846928730607032776
-1.33427083492279053 2.10081791877746582 2.52741265296936035 -0.527642965316772461 -0.664501786231994629 -0.529178977012634277
-2.36063599586486816 2.12396478652954102 2.3534398078918457 0.755972623825073242 -0.654600918292999268 0.00173463113605976105
-2.23512172698974609 1.36829841136932373 2.84766888618469238 0.570031225681304932 0.439627647399902344 -0.694112300872802734
-2.46161127090454102 2.53605175018310547 1.39993178844451904 0.689240396022796631 0.302403897047042847 0.658406853675842285
-2.16131901741027832 2.02615523338317871 1.85864996910095215 0.642409205436706543 -0.158582389354705811 0.749774694442749023
-2.09810638427734375 5.49699974060058594 2.89666104316711426 0.108478344976902008 0.817178606986999512 -0.566084384918212891
-2.02774286270141602 1.58115017414093018 3.02370619773864746 0.223689943552017212 -0.0646910592913627625 -0.972511112689971924
-2.20668482780456543 2.24952149391174316 2.29037833213806152 0.514768540859222412 -0.812309622764587402 -0.274165153503417969
-1.88192307949066162 2.3205265998840332 2.57544732093811035 0.0727623254060745239 -0.94424283504486084 -0.321109294891357422
-1.24541854858398438 1.39779520034790039 2.57830667495727539 -0.797871887683868408 0.265744954347610474 -0.541091620922088623
-1.77179968357086182 1.55724656581878662 3.04207611083984375 -0.114925071597099304 0.140185922384262085 -0.9834328293800354
-0.00299952318891882896 4.97279834747314453 0.352508783340454102 0.677223503589630127 0.242104798555374146 -0.694804906845092773
-1.17286622524261475 1.79229891300201416 2.46514558792114258 -0.893997430801391602 -0.207092583179473877 -0.397342890501022339
-1.63498032093048096 2.31090164184570312 2.48938155174255371 -0.305807173252105713 -0.934744298458099365 -0.180928424000740051
-2.41353821754455566 2.05019044876098633 2.42897915840148926 0.811389625072479248 -0.5072174072265625 -0.290477931499481201
-2.47419381141662598 1.72517609596252441 2.07969522476196289 0.987099647521972656 -0.146215900778770447 0.0652315914630889893
-1.6251523494720459 1.90892314910888672 2.97096920013427734 -0.315496623516082764 -0.3725871741771698 -0.872720241546630859
-3.32078170776367188 -0.767922878265380859 5.49700021743774414 -0.348004698753356934 -0.575971007347106934 0.739696264266967773
-1.52336776256561279 2.2755885124206543 2.40572524070739746 -0.294780701398849487 -0.780090808868408203 -0.551871955394744873
-2.18243288993835449 2.19997572898864746 2.07945442199707031 0.477901756763458252 -0.78580319881439209 0.39258536696434021
-2.37317776679992676 1.24242997169494629 2.49590778350830078 0.723095953464508057 0.498020201921463013 -0.478652417659759521
-1.65953671932220459 1.96993649005889893 2.95456790924072266 -0.063428342342376709 -0.444617807865142822 -0.893471837043762207
-5.49700021743774414 -0.44881129264831543 4.99067974090576172 -0.742032408714294434 -0.4386788010597229 0.506901144981384277
-1.49776756763458252 2.26017975807189941 2.29663348197937012 -0.504223406314849854 -0.863539695739746094 0.00761564448475837708
-2.4323277473449707 2.01197481155395508 2.25241208076477051 0.842436850070953369 -0.536163091659545898 -0.0531908459961414337
-1.56849300861358643 2.27526617050170898 2.53129172325134277 -0.0522384271025657654 -0.996794342994689941 -0.0605983063578605652
-2.39077854156494141 1.55987715721130371 2.77016758918762207 0.803889751434326172 0.135903254151344299 -0.579043686389923096
-2.53956937789916992 2.21588802337646484 5.49700021743774414 -0.211568921804428101 0.167990788817405701 0.962817549705505371
-2.49250173568725586 1.88177895545959473 2.4583427906036377 0.936553776264190674 -0.321148395538330078 -0.140466272830963135
-2.08294224739074707 1.95705044269561768 1.65299630165100098 0.114130735397338867 -0.502225339412689209 -0.857172071933746338
-1.83919107913970947 1.36243665218353271 2.98354339599609375 0.0428587161004543304 0.274039328098297119 -0.960762977600097656
-2.2855219841003418 1.99419927597045898 2.77851533889770508 0.528369724750518799 -0.371123313903808594 -0.763605237007141113
-1.97700440883636475 1.98238170146942139 2.96152353286743164 0.204971224069595337 -0.449329674243927002 -0.869534134864807129
-1.66165292263031006 1.82903265953063965 3.00867152214050293 -0.266986191272735596 -0.237233981490135193 -0.934044122695922852
-2.21448254585266113 -0.618665695190429688 5.49700021743774414 -0.0928858369588851929 -0.591458022594451904 0.800968408584594727
-1.99280285835266113 2.12155628204345703 2.8585209846496582 0.217719525098800659 -0.649627566337585449 -0.728410720825195312
-2.14862537384033203 1.0493772029876709 2.28452491760253906 0.463051855564117432 0.84437185525894165 -0.269479274749755859
-1.35785984992980957 2.1559441089630127 2.38269305229187012 -0.472197383642196655 -0.771994352340698242 -0.425504863262176514
-1.88380694389343262 3.97402787208557129 5.49700021743774414 -0.00686508975923061371 0.600371122360229492 0.799691677093505859
-1.7862706184387207 1.70669496059417725 3.05093789100646973 -0.0835849940776824951 -0.0624370314180850983 -0.994542717933654785
-2.71513557434082031 2.94239377975463867 1.51537573337554932 -0.509270071983337402 0.731522798538208008 -0.453341543674468994
-1.84264791011810303 2.03053069114685059 2.94870352745056152 -0.0107295224443078041 -0.530842244625091553 -0.847402811050415039
-1.7277061939239502 2.18483281135559082 2.80173754692077637 -0.161068737506866455 -0.738140583038330078 -0.65513765811920166
-0.203281402587890625 3.9315955638885498 5.49700021743774414 0.396722853183746338 0.540971457958221436 0.741593420505523682
-1.87004899978637695 2.35286688804626465 2.29458737373352051 0.0845970064401626587 -0.991929054260253906 0.0944465175271034241
-1.35599029064178467 2.15060973167419434 2.29340505599975586 -0.719453930854797363 -0.687705039978027344 0.0972004979848861694
-0.275438785552978516 3.27585315704345703 5.49699926376342773 0.389061868190765381 0.180404409766197205 0.903374254703521729
-1.88185906410217285 2.17624044418334961 1.89148414134979248 0.122025810182094574 -0.805215597152709961 0.580290913581848145
-4.34105348587036133 0.200360357761383057 0.74832528829574585 0.978784501552581787 0.0255213137716054916 -0.203296691179275513
-2.09647154808044434 1.6823498010635376 3.00545477867126465 0.361936569213867188 -0.0318533256649971008 -0.931658387184143066
-0.00300000002607703209 1.76079940795898438 1.57962381839752197 0.835012257099151611 0.0062138289213180542 -0.550196528434753418
-1.85516738891601562 1.13743472099304199 2.80708670616149902 0.0253309886902570724 0.75248640775680542 -0.658120393753051758
-2.46459269523620605 1.45402848720550537 2.57754397392272949 0.904867291450500488 0.274435460567474365 -0.325423598289489746
-1.36544883251190186 1.81701803207397461 1.88022410869598389 -0.638268589973449707 -0.248201131820678711 0.728703975677490234
-1.43994951248168945 0.962368965148925781 1.65299582481384277 0.352014452219009399 0.273514658212661743 -0.895139992237091064
-2.07607722282409668 2.31324410438537598 2.42055010795593262 0.359200775623321533 -0.929384768009185791 -0.0849633067846298218
-2.39271163940429688 5.49699974060058594 2.17331027984619141 -0.276464611291885376 0.95144498348236084 0.135350540280342102
-2.29039883613586426 2.08631348609924316 2.67764186859130859 0.646047115325927734 -0.613205552101135254 -0.454535096883773804
-1.56436562538146973 1.76449811458587646 2.98672175407409668 -0.421143174171447754 -0.145362675189971924 -0.895269870758056641
-2.44358944892883301 1.47640669345855713 2.64676928520202637 0.86708754301071167 0.279874503612518311 -0.412103772163391113
-2.00132036209106445 1.14128410816192627 2.78328037261962891 0.21382574737071991 0.754683017730712891 -0.620267868041992188
-2.39470624923706055 1.26740932464599609 2.2318577766418457 0.805962443351745605 0.560010850429534912 0.191865891218185425
-0.00300023844465613365 2.98096680641174316 5.28244495391845703 0.927252531051635742 -0.370476037263870239 -0.0543158166110515594
-5.49700021743774414 4.4211430549621582 0.68985295295715332 -0.958509206771850586 0.246614634990692139 0.142972975969314575
-5.49700021743774414 2.4644474983215332 4.43475818634033203 -0.732938468456268311 -0.495438277721405029 -0.466199666261672974
-2.17521810531616211 2.02858495712280273 2.8470761775970459 0.473616302013397217 -0.447889029979705811 -0.758342266082763672
-1.89066720008850098 2.3530433177947998 2.40392827987670898 0.454858303070068359 -0.761079311370849609 -0.462452352046966553
-0.929413318634033203 5.10388994216918945 0.00300000002607703209 -0.127688273787498474 -0.0936754867434501648 -0.987380683422088623
-0.00300000002607703209 4.97643041610717773 3.64673757553100586 0.479848682880401611 -0.63469243049621582 -0.605731606483459473
-1.65756440162658691 2.12025856971740723 2.84717011451721191 -0.254200279712677002 -0.675600171089172363 -0.692059755325317383
-1.17745959758758545 1.49879801273345947 2.28066062927246094 -0.960907697677612305 0.237821906805038452 0.141764372587203979
-1.80830681324005127 0.966279089450836182 1.65299630165100098 -0.728443920612335205 -0.326822578907012939 -0.602126598358154297
-2.04128575325012207 2.093292236328125 2.86683058738708496 0.280170798301696777 -0.627380967140197754 -0.72656548023223877
-2.3479461669921875 1.64122152328491211 2.83347368240356445 0.72280585765838623 0.0120753934606909752 -0.690945625305175781
-1.34576606750488281 1.4038398265838623 2.76233983039855957 -0.561766147613525391 0.209481179714202881 -0.800335288047790527
-2.19929718971252441 1.21060311794281006 2.74095559120178223 0.521409988403320312 0.659355342388153076 -0.541647732257843018
-2.37173271179199219 1.60737013816833496 2.80341720581054688 0.750542163848876953 0.0881491154432296753 -0.654917061328887939
-1.31915128231048584 1.52746045589447021 2.78912997245788574 -0.559699296951293945 -0.00182670168578624725 -0.828693747520446777
-1.99311184883117676 2.29885053634643555 2.1246795654296875 0.215445280075073242 -0.919765233993530273 0.328047573566436768
-1.54447126388549805 1.37442660331726074 2.91271495819091797 -0.442267239093780518 0.419752895832061768 -0.792595267295837402
-1.90413391590118408 1.85408484935760498 1.69166386127471924 0.513892590999603271 -0.609446167945861816 0.603729844093322754
-1.3048931360244751 2.07373905181884766 2.5012664794921875 -0.563049197196960449 -0.646983981132507324 -0.514186263084411621
-2.46549391746520996 1.65383446216583252 2.66174435615539551 0.890574753284454346 0.0172647386789321899 -0.454509109258651733
-2.52879953384399414 1.57439517974853516 2.36538076400756836 0.994293332099914551 0.104511618614196777 -0.0214049406349658966
-1.86461031436920166 2.2846381664276123 2.6657252311706543 0.0446947291493415833 -0.846605420112609863 -0.530341148376464844
-2.35335111618041992 1.32438075542449951 2.67962288856506348 0.723861038684844971 0.268823474645614624 -0.635420441627502441
-1.57529020309448242 2.10983014106750488 2.81707096099853516 -0.0796091407537460327 -0.563705921173095703 -0.822130203247070312
-2.24029922485351562 2.22204256057739258 2.46073579788208008 0.565521240234375 -0.804386436939239502 -0.182066112756729126
-1.70650386810302734 2.14910292625427246 2.8351132869720459 -0.185432195663452148 -0.697515308856964111 -0.692161321640014648
-2.11566734313964844 1.53474938869476318 2.9842069149017334 0.404910445213317871 0.196250885725021362 -0.893047094345092773
-0.877424836158752441 4.00807428359985352 5.49700021743774414 0.244681656360626221 0.581798553466796875 0.775655925273895264
-5.49700021743774414 5.18660306930541992 3.47706842422485352 -0.972450494766235352 -0.233101963996887207 0.00187052029650658369
-2.43172335624694824 1.49130046367645264 2.03725814819335938 0.99123990535736084 0.110875397920608521 0.0717643201351165771
-1.54676425457000732 5.49700021743774414 2.74760222434997559 0.0801385790109634399 0.992461740970611572 0.0927221626043319702
-2.72192049026489258 3.21617960929870605 1.62426185607910156 -0.41721111536026001 0.762395381927490234 -0.494659513235092163
-1.89916431903839111 1.06533229351043701 2.69905352592468262 0.0659514963626861572 0.863012850284576416 -0.500858426094055176
-1.97575962543487549 1.11763060092926025 2.76122641563415527 0.184834063053131104 0.792572319507598877 -0.581089913845062256
-1.96497631072998047 1.03467953205108643 2.61557102203369141 0.223361194133758545 0.552960395812988281 -0.802710771560668945
-2.9774625301361084 2.86101794242858887 2.95105171203613281 -0.649880468845367432 0.681745290756225586 0.335975617170333862
-1.6231008768081665 1.51286983489990234 2.99943017959594727 -0.324730634689331055 0.232660830020904541 -0.916743755340576172
-5.42676353454589844 0.762181997299194336 0.00300000002607703209 -0.701758325099945068 -0.604167580604553223 -0.377514034509658813
-0.00300000002607703209 1.34008479118347168 4.90983247756958008 0.588473618030548096 -0.104513943195343018 0.801733136177062988
-1.89498353004455566 1.61127316951751709 3.05057406425476074 0.0799694880843162537 0.0706618949770927429 -0.994289517402648926
-1.7906031608581543 1.7272266149520874 3.04981184005737305 -0.0605256035923957825 -0.103193938732147217 -0.992818117141723633
-1.96944546699523926 2.32565784454345703 2.51917719841003418 0.169104546308517456 -0.95895075798034668 -0.227633684873580933
-1.29126632213592529 2.0699007511138916 2.26570749282836914 -0.731445431709289551 -0.655652284622192383 -0.187369987368583679
-2.52762722969055176 1.68944358825683594 2.45578193664550781 0.893431484699249268 -0.116877272725105286 -0.43372797966003418
-1.5942312479019165 2.01868200302124023 1.81596517562866211 -0.346486479043960571 -0.560745775699615479 0.752004861831665039
-2.07557106018066406 1.74056005477905273 3.00916385650634766 0.342129945755004883 -0.113523244857788086 -0.932769834995269775
-2.96619129180908203 -0.628995895385742188 5.49700021743774414 -0.276956826448440552 -0.57492220401763916 0.769908785820007324
-1.66482794284820557 4.46681308746337891 0.00300000002607703209 -0.282748430967330933 0.948809146881103516 -0.140763923525810242
-1.95280468463897705 2.13844728469848633 2.85318231582641602 0.242288500070571899 -0.56712496280670166 -0.787188410758972168
-1.37985420227050781 1.58893907070159912 1.84855532646179199 0.129042401909828186 0.803193151950836182 0.581574440002441406
-1.57901084423065186 2.09562397003173828 2.83266186714172363 -0.381709158420562744 -0.610006332397460938 -0.694399356842041016
-2.33839273452758789 1.84138524532318115 1.90597283840179443 0.712111055850982666 -0.254645764827728271 0.654257893562316895
-2.83848047256469727 4.27440977096557617 5.49700021743774414 -0.236610382795333862 0.626395702362060547 0.742727458477020264
-2.26890993118286133 1.56302428245544434 2.89712142944335938 0.600181937217712402 0.127745836973190308 -0.789596438407897949
-2.11293125152587891 1.43201220035552979 2.95455646514892578 0.402515590190887451 0.343439459800720215 -0.848546147346496582
-2.36349129676818848 1.76586711406707764 2.80550575256347656 0.743937373161315918 -0.130598723888397217 -0.655363380908966064
-3.64372134208679199 3.06992578506469727 3.5850224494934082 -0.693425595760345459 0.548429727554321289 0.467316925525665283
-2.27925968170166016 2.18918299674987793 2.47454380989074707 0.651568055152893066 -0.710833907127380371 -0.264904111623764038
-2.73639845848083496 2.25187945365905762 0.00300000002607703209 -0.695568501949310303 -0.0845653638243675232 -0.713465571403503418
-2.11672520637512207 2.26731586456298828 2.56113338470458984 0.38215327262878418 -0.866351485252380371 -0.321549534797668457
-0.988672256469726562 -0.238824367523193359 5.49700021743774414 0.228122562170028687 -0.511191368103027344 0.8286399245262146
-2.83457279205322266 4.31266403198242188 5.49700021743774414 -0.234290719032287598 0.626802027225494385 0.743120312690734863
-2.07468152046203613 2.28651666641235352 2.55505776405334473 0.939046502113342285 -0.239202618598937988 -0.246928766369819641
-1.91552901268005371 1.92135536670684814 1.71616494655609131 0.0763731375336647034 -0.472353160381317139 0.878094315528869629
-2.4659881591796875 1.40245163440704346 2.50554680824279785 0.892526149749755859 0.389217913150787354 -0.227829843759536743
-2.73537087440490723 3.25953888893127441 3.14569711685180664 -0.160298794507980347 -0.79931563138961792 -0.579136252403259277
-3.85303258895874023 1.81790518760681152 0.00300000002607703209 0.15854702889919281 -0.375880181789398193 -0.913004398345947266
-0.00300000002607703209 2.38314914703369141 2.84656119346618652 0.955521225929260254 0.287052720785140991 0.0676759481430053711
-1.59448301792144775 2.18273615837097168 2.74517631530761719 -0.121314734220504761 -0.590720117092132568 -0.797704517841339111
-2.02705645561218262 1.12612700462341309 2.75240635871887207 0.259063094854354858 0.770443081855773926 -0.582497894763946533
-2.26110982894897461 1.37029469013214111 2.82669425010681152 0.615286827087402344 0.35284721851348877 -0.70492631196975708
-2.30808615684509277 1.43724226951599121 2.81956934928894043 0.677592217922210693 0.332302629947662354 -0.6560821533203125
-1.75089824199676514 2.03446769714355469 2.93886971473693848 -0.110957391560077667 -0.616313576698303223 -0.77964484691619873
-5.49700021743774414 1.34613633155822754 1.97943687438964844 -0.829200029373168945 -0.54516977071762085 -0.123358257114887238
-1.96919572353363037 1.62671339511871338 3.04198074340820312 0.238421469926834106 -0.0061722765676677227 -0.971142172813415527
-2.00184988975524902 1.63414299488067627 3.03513002395629883 0.220132023096084595 -0.0700154304504394531 -0.972954094409942627
-2.30264377593994141 2.17810893058776855 2.42246818542480469 0.651827692985534668 -0.753575921058654785 -0.0851116180419921875
-1.65246641635894775 1.05508065223693848 2.62235116958618164 -0.289767742156982422 0.8824920654296875 -0.370462357997894287
-1.77666556835174561 1.27609145641326904 2.92905998229980469 -0.0958584770560264587 0.562843203544616699 -0.820986509323120117
-2.29784727096557617 2.1767430305480957 2.25845623016357422 0.639745116233825684 -0.754247426986694336 0.147773861885070801
-2.47502827644348145 1.84394669532775879 2.57650160789489746 0.91194838285446167 -0.252573788166046143 -0.323352247476577759
-2.48099231719970703 1.89586877822875977 2.49553298950195312 0.70868992805480957 -0.316994130611419678 -0.630296230316162109
-2.48711895942687988 1.48834753036499023 2.53911781311035156 0.803439497947692871 0.0914511382579803467 -0.588321208953857422
-2.20543575286865234 2.2350006103515625 2.50730800628662109 0.495457857847213745 -0.779132187366485596 -0.384024262428283691
-1.97110044956207275 1.95772814750671387 1.74124598503112793 0.201332837343215942 -0.426780104637145996 0.881659746170043945
-1.81298589706420898 1.29940474033355713 2.94755315780639648 -0.0326373055577278137 0.529815554618835449 -0.847484707832336426
-1.98930788040161133 2.25293612480163574 5.49700021743774414 -0.0435430780053138733 0.18479447066783905 0.981812357902526855
-2.05032062530517578 1.46107447147369385 2.98955106735229492 0.296688824892044067 0.272373318672180176 -0.915307939052581787
-1.92356133460998535 1.86090350151062012 3.02063274383544922 0.120560571551322937 -0.297654688358306885 -0.947030544281005859
-0.00300000002607703209 4.42796421051025391 3.74352073669433594 0.958047747611999512 0.266406238079071045 0.105698592960834503
-1.66093456745147705 1.18398952484130859 2.82237386703491211 -0.267184585332870483 0.703148961067199707 -0.65893399715423584
-2.13541197776794434 2.02723503112792969 2.87314009666442871 0.426133453845977783 -0.540616750717163086 -0.725357651710510254
-0.403510570526123047 4.10562801361083984 5.49700021743774414 0.344472110271453857 0.578420937061309814 0.73943793773651123
-1.29047036170959473 1.25667572021484375 2.28890490531921387 -0.793482184410095215 0.528489291667938232 -0.301803141832351685
-5.49700021743774414 -0.404333591461181641 3.27238345146179199 -0.75720369815826416 -0.431314468383789062 -0.490520566701889038
-2.62442255020141602 -0.161159038543701172 0.00300000002607703209 -0.0965481996536254883 -0.29611244797706604 -0.950260937213897705
-2.06240081787109375 1.76025640964508057 3.01124095916748047 0.334330141544342041 -0.148007854819297791 -0.930761575698852539
-2.14716053009033203 1.26305520534515381 2.83444118499755859 0.441551744937896729 0.493134737014770508 -0.74956667423248291
-3.90396285057067871 3.48017239570617676 3.30120301246643066 -0.668397963047027588 -0.314919948577880859 0.673846900463104248
-4.28214263916015625 -0.427184611558914185 0.776948153972625732 -0.678816378116607666 -0.586882472038269043 -0.441335916519165039
-2.13373231887817383 1.49975931644439697 2.96731925010681152 0.429483473300933838 0.237908363342285156 -0.871173679828643799
-2.13942694664001465 1.2258220911026001 2.80526971817016602 0.45521429181098938 0.337257921695709229 -0.824037075042724609
-3.73403501510620117 5.28136920928955078 5.49700021743774414 -0.771228373050689697 -0.423756122589111328 0.475013196468353271
-2.11537456512451172 2.29031562805175781 2.47251152992248535 0.27745664119720459 -0.725480198860168457 -0.629838347434997559
-1.3971027135848999 2.09197306632995605 2.04692792892456055 -0.644676446914672852 -0.610770106315612793 0.459730625152587891
-2.40134525299072266 1.76078510284423828 1.95889663696289062 0.870946645736694336 -0.223216801881790161 0.437751293182373047
-1.70614910125732422 1.9739842414855957 2.96486330032348633 -0.192647233605384827 -0.45198097825050354 -0.870976567268371582
-1.7989276647567749 1.67989349365234375 3.05316400527954102 -0.0785978883504867554 0.0102893747389316559 -0.996853351593017578
-0.0989780426025390625 1.73397397994995117 5.49700021743774414 0.079768642783164978 -0.71117699146270752 0.698472797870635986
-2.1276700496673584 1.89605271816253662 2.94835567474365234 0.423487424850463867 -0.32980799674987793 -0.843732833862304688
-2.32728099822998047 2.07731246948242188 2.63188886642456055 0.670310020446777344 -0.588720083236694336 -0.451766669750213623
-3.62009048461914062 3.37747359275817871 3.30299234390258789 0.57439887523651123 -0.210587933659553528 -0.791023850440979004
-1.85863363742828369 1.45473861694335938 3.02076244354248047 0.0355917327105998993 0.207796603441238403 -0.977524340152740479
-1.39285194873809814 3.89087176322937012 5.49700021743774414 -0.00989967584609985352 0.487192720174789429 0.873238325119018555
-2.35374355316162109 1.968841552734375 2.71497750282287598 0.755155861377716064 -0.426398217678070068 -0.497919797897338867
-2.02955341339111328 2.09980344772338867 5.49700021743774414 -0.0538252890110015869 0.125320076942443848 0.990655422210693359
-0.00300000002607703209 1.35522234439849854 2.16248703002929688 0.850659370422363281 -0.525244414806365967 0.0222927276045084
-2.31877517700195312 1.94289755821228027 2.77915740013122559 0.682822465896606445 -0.387691259384155273 -0.619232654571533203
-1.97491717338562012 1.17903423309326172 2.83458352088928223 0.198209866881370544 0.691898107528686523 -0.69425499439239502
-2.37186717987060547 1.72115790843963623 2.80352568626403809 0.749746799468994141 -0.0926294028759002686 -0.655209541320800781
-1.33747506141662598 1.20284879207611084 2.44491839408874512 -0.626149415969848633 0.622945308685302734 -0.468909591436386108
-1.69270312786102295 1.8044818639755249 3.0225989818572998 -0.224592939019203186 -0.218459725379943848 -0.94964909553527832
-2.33257198333740234 1.48719298839569092 2.8162076473236084 0.704505264759063721 0.269637882709503174 -0.656481325626373291
-1.77199113368988037 1.26790130138397217 2.92277145385742188 -0.0943001881241798401 0.562521696090698242 -0.821387052536010742
-2.08279657363891602 2.13501071929931641 2.80798912048339844 0.342655599117279053 -0.672989845275878906 -0.655493617057800293
-3.90962648391723633 3.0469210147857666 4.2475581169128418 -0.283576697111129761 0.596415340900421143 -0.75091475248336792
-2.21896672248840332 1.69895362854003906 2.9414665699005127 0.426978170871734619 -0.124855630099773407 -0.895600736141204834
-1.78923666477203369 1.72321105003356934 3.05000090599060059 -0.0686347484588623047 -0.0759342759847640991 -0.99474787712097168
-1.59894299507141113 1.72363901138305664 3.00603294372558594 -0.345965921878814697 -0.0786634162068367004 -0.934943675994873047
-1.64041852951049805 2.08535218238830566 2.87128067016601562 -0.0778124108910560608 -0.523366630077362061 -0.84854733943939209
-5.49700021743774414 3.01474761962890625 4.98597240447998047 -0.77901005744934082 0.288870334625244141 0.55650484561920166
-2.19402837753295898 1.35496628284454346 2.8702692985534668 0.423929452896118164 0.229810327291488647 -0.876054286956787109
-4.24734735488891602 0.853778839111328125 5.49700021743774414 -0.59798508882522583 -0.203741952776908875 0.775179386138916016
-2.36494588851928711 1.99076366424560547 2.04019641876220703 0.756673693656921387 -0.495857477188110352 0.426110535860061646
-5.49700021743774414 1.56789541244506836 3.47765970230102539 -0.95791471004486084 -0.0301133040338754654 0.285469532012939453
-5.49699974060058594 2.69960236549377441 5.24712467193603516 -0.769433140754699707 0.21512681245803833 0.601410090923309326
-1.97939586639404297 1.13360822200775146 2.78128147125244141 0.213581934571266174 0.753641009330749512 -0.621617317199707031
-1.83757483959197998 1.67180287837982178 3.05613493919372559 -0.00146422255784273148 -0.132804960012435913 -0.991141200065612793
-1.57302689552307129 2.23633193969726562 2.63950920104980469 0.485078960657119751 -0.873133301734924316 0.0483384579420089722
-1.93834507465362549 2.34980320930480957 2.36146998405456543 0.125959828495979309 -0.991400480270385742 -0.0354840010404586792
-1.72323989868164062 2.34374094009399414 2.40748262405395508 -0.168611228466033936 -0.982011318206787109 -0.0849935561418533325
-2.47333121299743652 1.94371151924133301 2.4184575080871582 0.907907485961914062 -0.409740835428237915 -0.0884108617901802063
-2.13081622123718262 2.28305554389953613 2.24184823036193848 0.445748358964920044 -0.895098447799682617 -0.0103477239608764648
-2.03790807723999023 2.28733372688293457 2.12666606903076172 0.319340825080871582 -0.907293200492858887 0.273569941520690918
-1.57285463809967041 1.68072092533111572 2.99799728393554688 -0.398967176675796509 -0.0308672934770584106 -0.916445612907409668
-2.02467131614685059 2.23633980751037598 2.70483303070068359 0.273858338594436646 -0.821606159210205078 -0.49996495246887207
-3.90035390853881836 1.80742645263671875 5.49700021743774414 -0.548286020755767822 0.0355574637651443481 0.835534930229187012
-1.77560663223266602 2.34801793098449707 2.44067072868347168 -0.128832653164863586 -0.98724520206451416 -0.0935373678803443909
-2.47805190086364746 1.40490853786468506 2.27065801620483398 0.919231295585632324 0.369756609201431274 0.135254800319671631
-1.67330527305603027 1.943642258644104 2.97148752212524414 -0.25987088680267334 -0.413716346025466919 -0.872528433799743652
-1.40350937843322754 1.6192091703414917 2.89246296882629395 0.0901373326778411865 -0.338977605104446411 -0.936466574668884277
-4.72868776321411133 5.29565238952636719 0.00299952318891882896 -0.372797608375549316 0.0436990633606910706 -0.926883101463317871
-2.30923295021057129 2.04326605796813965 2.01253700256347656 0.686127185821533203 -0.546214044094085693 0.480499386787414551
-2.00469875335693359 1.58525562286376953 3.03026533126831055 0.249419689178466797 0.116466492414474487 -0.961366415023803711
-3.47690248489379883 1.67039406299591064 5.49700021743774414 -0.46393507719039917 0.000746276229619979858 0.885869026184082031
-1.8606727123260498 1.54221367835998535 3.04326629638671875 0.0757369920611381531 0.0807718485593795776 -0.993851006031036377
-4.10718631744384766 -0.521300792694091797 5.49700021743774414 -0.508611679077148438 -0.493677020072937012 0.705405771732330322
-1.19066238403320312 1.88322663307189941 2.41547989845275879 -0.881032347679138184 -0.346394062042236328 -0.322169661521911621
-2.12536263465881348 1.30703210830688477 1.83532536029815674 0.424397528171539307 0.504567384719848633 0.751863360404968262
-1.74216783046722412 1.84676945209503174 3.02173089981079102 -0.154783755540847778 -0.280539870262145996 -0.947279989719390869
-1.78661739826202393 1.16949248313903809 2.83938169479370117 -0.086023576557636261 0.713852167129516602 -0.694992899894714355
