ply
format ascii 1.0
element vertex 213
property float x
property float y
property float z
property float nx
property float ny
property float nz
end_header
-3.75388455390930176 3.03432846069335938 3.30299258232116699 0.190467417240142822 -0.533052802085876465 -0.824364364147186279
-5.49700021743774414 3.53463268280029297 3.12565326690673828 -0.358429759740829468 -0.793316245079040527 -0.492115318775177002
-0.00300000002607703209 5.02264261245727539 0.0796427726745605469 0.648782968521118164 -0.110294066369533539 -0.752938151359558105
-0.00300000002607703209 3.73464345932006836 2.39641523361206055 0.357210457324981689 -0.933345556259155273 -0.0355918072164058685
-2.20215797424316406 5.49700021743774414 5.48488044738769531 0.984351634979248047 0.176073268055915833 -0.00707518402487039566
-1.73549890518188477 1.78917336463928223 3.03432154655456543 -0.0649341344833374023 -0.17373955249786377 -0.982648491859436035
-4.84525394439697266 4.97854518890380859 5.49700021743774414 -0.146925374865531921 0.660867571830749512 0.735980331897735596
-1.06408822536468506 5.49700021743774414 4.21113061904907227 0.715994179248809814 0.486636221408843994 -0.50053715705871582
-3.63307476043701172 3.64058828353881836 3.30299234390258789 0.313835561275482178 -0.63796544075012207 -0.703212141990661621
-1.7270892858505249 2.13176345825195312 2.85780453681945801 -0.0851199552416801453 -0.641263067722320557 -0.762585282325744629
-3.35296010971069336 4.47838211059570312 2.95695066452026367 0.193013548851013184 -0.874180197715759277 -0.445594817399978638
-4.52527618408203125 -0.186463713645935059 0.928561985492706299 -0.90029376745223999 0.409655719995498657 0.147150546312332153
-0.00300000002607703209 3.6903681755065918 3.64167308807373047 0.999494791030883789 0.02426910400390625 0.0205115675926208496
-5.49700021743774414 -0.620189189910888672 5.19567108154296875 -0.726742386817932129 -0.466432332992553711 0.504268527030944824
-3.66922807693481445 4.25216245651245117 5.49700021743774414 0.143646478652954102 -0.512215077877044678 0.846759319305419922
-2.36249470710754395 2.94964051246643066 5.49700021743774414 0.430070310831069946 -0.122264087200164795 0.894478023052215576
-0.00300000002607703209 2.71326732635498047 2.97067546844482422 0.875170528888702393 0.455198734998703003 0.163922607898712158
-5.49700021743774414 1.82454383373260498 5.27392959594726562 -0.910055637359619141 -0.394763648509979248 -0.126334607601165771
-2.08791732788085938 5.26412868499755859 0.00300000002607703209 -0.276529490947723389 -0.674474895000457764 -0.684554636478424072
-2.2265174388885498 2.17582058906555176 2.62568187713623047 0.561295509338378906 -0.645085513591766357 -0.518470883369445801
-4.42537117004394531 0.431029558181762695 5.49700069427490234 -0.11802692711353302 0.13493010401725769 0.983800530433654785
-3.4169151782989502 2.72469520568847656 0.347538113594055176 -0.18252602219581604 0.12749125063419342 0.974900126457214355
-1.74737143516540527 1.36132371425628662 2.97542953491210938 -0.064435422420501709 0.316818445920944214 -0.946295022964477539
-2.0495600700378418 1.51205039024353027 3.00421571731567383 0.309596776962280273 0.168748423457145691 -0.935774445533752441
-5.49700021743774414 4.55897903442382812 2.69463491439819336 -0.87664794921875 -0.182418406009674072 0.445209980010986328
-2.18823766708374023 2.08730697631835938 2.78620243072509766 0.439655005931854248 -0.592900276184082031 -0.674664914608001709
-3.2734825611114502 5.49700021743774414 4.82649469375610352 0.552033066749572754 0.802486777305603027 -0.226438611745834351
-5.49700021743774414 3.31657624244689941 3.19901442527770996 -0.967280745506286621 0.0686763525009155273 -0.244236767292022705
-3.42884302139282227 3.14444875717163086 3.30299258232116699 0.193856120109558105 -0.658844470977783203 -0.726872444152832031
-1.50049376487731934 1.65970754623413086 2.96186017990112305 -0.365021854639053345 -0.0626794248819351196 -0.928886651992797852
-3.90352964401245117 5.49700021743774414 4.27759218215942383 0.519430041313171387 0.690306484699249268 -0.50365602970123291
-5.49700021743774414 3.96483278274536133 5.02374172210693359 -0.781616091728210449 -0.505718111991882324 -0.365137696266174316
-4.57211971282958984 5.49700021743774414 5.46490097045898438 -0.513198792934417725 0.504712879657745361 -0.694184362888336182
-0.49261021614074707 0.559088230133056641 0.00300047686323523521 -0.153205931186676025 -0.361738979816436768 -0.919604718685150146
-5.49700021743774414 3.99507284164428711 1.7969818115234375 -0.492412537336349487 -0.205416560173034668 -0.845774173736572266
-3.92075109481811523 5.49700021743774414 5.48795509338378906 0.971616387367248535 0.22858002781867981 -0.0609327852725982666
-5.49700021743774414 0.390662670135498047 3.7032475471496582 -0.897408485412597656 -0.334998726844787598 0.287113845348358154
-3.02647137641906738 4.20650911331176758 0.00300000002607703209 0.0748781859874725342 0.768886208534240723 -0.634986042976379395
-4.88774919509887695 5.49700021743774414 4.55393600463867188 -0.262788265943527222 0.834636688232421875 -0.484070122241973877
-3.3671417236328125 3.58861207962036133 3.30299234390258789 0.517908036708831787 -0.0268568992614746094 -0.855014204978942871
-2.67099690437316895 1.83439755439758301 0.318993926048278809 0.847580015659332275 -0.27848479151725769 0.451723724603652954
-1.64576482772827148 1.26097691059112549 5.49700021743774414 0.0859223157167434692 -0.146991372108459473 0.98539888858795166
-2.32915472984313965 2.69706940650939941 1.33041191101074219 0.44989311695098877 -0.574337542057037354 0.683909833431243896
-0.00299952318891882896 5.39294195175170898 2.54049897193908691 0.806644856929779053 0.0619440488517284393 -0.587781429290771484
-0.695859193801879883 5.49700021743774414 0.737874746322631836 0.930612325668334961 0.361517250537872314 -0.0571490302681922913
-5.34859943389892578 5.49700021743774414 4.69765377044677734 -0.0819919407367706299 0.978868305683135986 -0.187334269285202026
-1.66596925258636475 1.78273499011993408 3.02000999450683594 -0.150367498397827148 -0.219505488872528076 -0.963953852653503418
-0.914269208908081055 5.29412031173706055 0.00300000002607703209 0.572258472442626953 -0.0180000178515911102 -0.819875717163085938
-2.10993051528930664 1.06484270095825195 2.57448267936706543 0.404017925262451172 0.788270056247711182 -0.464111924171447754
-3.26721096038818359 4.59293270111083984 5.49700021743774414 0.0297133959829807281 -0.529689371585845947 0.847671091556549072
-5.49700021743774414 4.59426975250244141 4.29783821105957031 -0.912248015403747559 0.0309300385415554047 0.408468961715698242
-4.52315998077392578 4.11537456512451172 0.289897680282592773 -0.246771365404129028 -0.472348988056182861 -0.846162080764770508
-3.9498443603515625 1.85646200180053711 5.49700021743774414 -0.0437868721783161163 -0.150923103094100952 0.987575292587280273
-2.05207180976867676 1.11447358131408691 2.72236800193786621 0.333278059959411621 0.685415863990783691 -0.647403120994567871
-3.59676074981689453 3.21712255477905273 3.30299234390258789 0.302276521921157837 -0.0820484161376953125 -0.949682533740997314
-2.02890157699584961 2.12073421478271484 2.84714913368225098 0.306081891059875488 -0.592015206813812256 -0.745541393756866455
-5.49700021743774414 1.88561725616455078 2.32920455932617188 -0.996283054351806641 0.0442378073930740356 -0.0739114284515380859
-2.78821182250976562 2.91972494125366211 0.438679695129394531 -0.631703078746795654 0.702471792697906494 0.327848464250564575
-3.41437935829162598 5.49700021743774414 4.70655059814453125 0.251947671175003052 0.291501224040985107 -0.922794342041015625
-0.00300000002607703209 0.665781974792480469 3.54189109802246094 0.620576560497283936 -0.784103631973266602 0.00813973601907491684
-0.631972312927246094 1.37494790554046631 0.00300000002607703209 -0.328628003597259521 0.0444139987230300903 -0.943414568901062012
-3.91584014892578125 4.46831941604614258 5.49700021743774414 -0.217556655406951904 0.438375741243362427 0.872064113616943359
-1.66830956935882568 1.88884234428405762 2.99223065376281738 -0.118132710456848145 -0.287817031145095825 -0.950371503829956055
-2.13297080993652344 2.10680127143859863 2.80718564987182617 0.365206599235534668 -0.565082013607025146 -0.739801645278930664
-1.8678048849105835 1.55036699771881104 3.04444479942321777 0.101540721952915192 0.10415901243686676 -0.989363670349121094
-1.86766254901885986 5.49700021743774414 4.76492786407470703 0.366240799427032471 0.09449758380651474 -0.925709366798400879
-3.98253083229064941 -0.498041629791259766 0.750057816505432129 -0.950636684894561768 -0.309555500745773315 -0.0215709544718265533
-1.49483358860015869 2.77394676208496094 0.00300023844465613365 0.391614973545074463 -0.618073821067810059 -0.68163222074508667
-2.50154662132263184 1.82273626327514648 2.50106382369995117 0.909198284149169922 -0.186262026429176331 -0.372377395629882812
-1.64285135269165039 1.62111663818359375 3.0225067138671875 -0.196315988898277283 -0.00353906303644180298 -0.98053431510925293
-2.13218283653259277 2.25083327293395996 2.58642768859863281 0.448437899351119995 -0.787487983703613281 -0.422807365655899048
-3.31090140342712402 4.49142885208129883 2.5918116569519043 -0.655570149421691895 -0.695014357566833496 0.295267462730407715
-0.00300000002607703209 5.49676609039306641 3.10321879386901855 0.532310426235198975 0.0639923736453056335 -0.844127118587493896
-2.24408125877380371 1.35909652709960938 2.83421230316162109 0.528106212615966797 0.356808006763458252 -0.770578861236572266
-1.96139693260192871 1.15847110748291016 2.81608223915100098 0.174495458602905273 0.617546677589416504 -0.766933798789978027
-2.4919734001159668 1.57869863510131836 2.58306670188903809 0.888456463813781738 0.0762092918157577515 -0.452589422464370728
-0.00300000002607703209 4.30596637725830078 5.0837244987487793 0.890853404998779297 0.246940553188323975 0.381314396858215332
-3.04558563232421875 5.49700021743774414 5.14804267883300781 0.699724733829498291 0.203021928668022156 -0.684957981109619141
-1.52931404113769531 1.94284343719482422 2.910980224609375 -0.350129604339599609 -0.375292807817459106 -0.858233451843261719
-2.38003349304199219 1.24573028087615967 2.47688603401184082 0.757389724254608154 0.63555300235748291 0.14977729320526123
-5.49700021743774414 0.0631132125854492188 5.17520713806152344 -0.991078555583953857 0.0144240530207753181 -0.132496178150177002
-4.08437824249267578 4.93356752395629883 0.00300000002607703209 0.0869537517428398132 0.298184722661972046 -0.950539290904998779
-1.98957538604736328 2.06191492080688477 2.90855050086975098 0.268517494201660156 -0.513177454471588135 -0.81519770622253418
-2.18260097503662109 1.92617738246917725 2.9045863151550293 0.460602849721908569 -0.318153440952301025 -0.828627467155456543
-4.59754562377929688 5.49700021743774414 5.09039878845214844 -0.03499588742852211 0.504118919372558594 0.862924933433532715
-3.50107884407043457 3.53329682350158691 3.30299234390258789 0.289227068424224854 -0.116712406277656555 -0.950118899345397949
-2.84999203681945801 3.62903475761413574 1.68875598907470703 -0.565424442291259766 -0.408606112003326416 0.71647489070892334
-2.42462992668151855 1.61430001258850098 1.98499226570129395 0.744554996490478516 -0.173099309206008911 0.644728302955627441
-2.28956484794616699 1.69769036769866943 2.88873410224914551 0.617359817028045654 -0.109060600399971008 -0.779084563255310059
-2.13662576675415039 1.80899596214294434 2.9716484546661377 0.356649339199066162 -0.189558520913124084 -0.914805352687835693
-5.49700021743774414 1.98419523239135742 3.58245158195495605 -0.77543032169342041 -0.631431102752685547 0.00157332420349121094
-0.00300000002607703209 1.39334964752197266 5.46219635009765625 0.997782349586486816 -0.0419052690267562866 -0.0517144612967967987
-3.25742959976196289 3.06969833374023438 3.30299210548400879 0.0740555748343467712 0.361390411853790283 -0.929469048976898193
-1.61050498485565186 1.4330596923828125 2.97002482414245605 -0.256820619106292725 0.237137645483016968 -0.936914563179016113
-2.70547032356262207 3.26295757293701172 5.49700021743774414 -0.175248116254806519 0.169486656785011292 0.969825923442840576
-2.00676655769348145 2.58489584922790527 1.65299630165100098 0.47941124439239502 -0.778356850147247314 -0.405371040105819702
-0.00300000002607703209 4.40950679779052734 4.41042375564575195 0.522380828857421875 0.815762519836425781 -0.248293787240982056
-2.8289952278137207 3.56134963035583496 2.81333065032958984 -0.720437884330749512 -0.556328892707824707 0.414086222648620605
-1.05600070953369141 5.49700021743774414 2.26042795181274414 0.504689335823059082 0.83416372537612915 0.222395122051239014
-1.80661165714263916 2.0803067684173584 2.91316056251525879 -0.0160253755748271942 -0.562848746776580811 -0.826404571533203125
-3.34431910514831543 3.42611217498779297 3.30299234390258789 0.706271767616271973 0.271475791931152344 -0.653820037841796875
-0.00319170951843261719 0.439631462097167969 0.00299976160749793053 -5.98132610321044922e-05 0.316959470510482788 -0.948439121246337891
-4.49821805953979492 3.79912233352661133 5.49700021743774414 -0.278550207614898682 0.000332891941070556641 0.960421621799468994
-5.49700021743774414 0.209492921829223633 4.02843093872070312 -0.482502758502960205 -0.848364830017089844 0.217872023582458496
-0.00300000002607703209 5.37532472610473633 0.163999080657958984 0.387245118618011475 -0.555927276611328125 0.735517561435699463
-0.00299976160749793053 1.60407745838165283 4.78932952880859375 0.866745233535766602 -0.414998561143875122 0.276638925075531006
-2.19466423988342285 2.2511444091796875 2.25113534927368164 0.690783023834228516 -0.713234364986419678 -0.118808425962924957
-3.89080238342285156 4.95810508728027344 5.49700021743774414 0.0905024409294128418 0.600403130054473877 0.794559836387634277
-5.49700021743774414 0.345185756683349609 3.91614603996276855 -0.885278105735778809 -0.329931825399398804 0.327762126922607422
-0.0286622047424316406 5.49700021743774414 3.5936582088470459 0.903942227363586426 0.420530259609222412 0.077734924852848053
-2.33579492568969727 2.04843878746032715 2.05855298042297363 0.659840583801269531 -0.360610663890838623 0.659219622611999512
-1.47003722190856934 2.8816525936126709 0.00300000002607703209 -0.10027853399515152 0.912085652351379395 -0.397547423839569092
-2.43391108512878418 1.99684429168701172 2.49819684028625488 0.816369950771331787 -0.439218461513519287 -0.375003039836883545
-2.86124277114868164 -0.83457183837890625 5.49700021743774414 0.246417775750160217 -0.846109688282012939 0.472627460956573486
-5.49700021743774414 2.72538590431213379 4.22237014770507812 -0.5885772705078125 0.123066850006580353 -0.799018979072570801
-2.04145383834838867 1.43772506713867188 1.73227906227111816 0.941134214401245117 0.173097521066665649 0.290350914001464844
-2.59133267402648926 5.49700021743774414 4.525238037109375 0.281085759401321411 0.938578009605407715 -0.200155317783355713
-3.22327589988708496 4.51861095428466797 1.83968830108642578 0.12026185542345047 -0.744461357593536377 0.656745314598083496
-1.84853208065032959 2.09851288795471191 2.90013527870178223 0.0775033608078956604 -0.556782126426696777 -0.827035069465637207
-1.6731112003326416 1.95249247550964355 2.96712827682495117 -0.162430122494697571 -0.417229980230331421 -0.894167542457580566
-2.88683080673217773 3.74778914451599121 0.0512461662292480469 -0.999789059162139893 -0.0056337602436542511 0.019751083105802536
-5.49700021743774414 -0.592604637145996094 1.42350149154663086 -0.859616577625274658 -0.452746927738189697 0.236811205744743347
-0.00300000002607703209 5.37093544006347656 1.75603032112121582 0.629584610462188721 -0.466963142156600952 0.620941758155822754
-0.246394872665405273 -0.0333418846130371094 5.49700021743774414 0.168993011116981506 -0.686473488807678223 0.707245051860809326
-1.46072769165039062 2.43791604042053223 0.312782943248748779 0.367296040058135986 -0.901901662349700928 0.227303802967071533
-0.00300000002607703209 3.71410465240478516 3.1874239444732666 0.643971502780914307 0.270924836397171021 -0.715472161769866943
-0.00300000002607703209 1.69455301761627197 5.38014698028564453 0.98332136869430542 -0.102955177426338196 -0.149931207299232483
-0.90116417407989502 5.49700021743774414 5.44969511032104492 -0.438449591398239136 0.534513473510742188 -0.722535312175750732
-0.00300000002607703209 2.47964000701904297 4.10773849487304688 0.282472521066665649 -0.862531602382659912 -0.419819653034210205
-0.00300000002607703209 3.04851126670837402 5.23390769958496094 0.132901594042778015 0.557122230529785156 -0.819726765155792236
-0.00300000002607703209 4.72039461135864258 4.9372100830078125 0.231631770730018616 0.833096921443939209 -0.502291023731231689
-1.86224746704101562 1.81043970584869385 3.03872108459472656 0.13597521185874939 -0.236582204699516296 -0.962049722671508789
-3.40349626541137695 0.141004636883735657 0.920889377593994141 0.692050457000732422 -0.717507243156433105 0.0790541544556617737
-4.43313407897949219 5.49700021743774414 4.53009700775146484 -0.25628286600112915 0.902563691139221191 0.345973730087280273
-1.64138603210449219 1.45273613929748535 2.98814249038696289 -0.157767564058303833 0.208918482065200806 -0.96512305736541748
-5.23780441284179688 5.49700021743774414 2.90468931198120117 -0.285514652729034424 0.516929507255554199 -0.807010054588317871
-2.08884835243225098 2.01705789566040039 2.9037010669708252 0.325590044260025024 -0.415225744247436523 -0.849457919597625732
-2.27200222015380859 1.4952080249786377 2.87680459022521973 0.57915496826171875 0.144672676920890808 -0.802277684211730957
-5.49700021743774414 4.14528322219848633 3.78103899955749512 -0.895018219947814941 -0.0599432028830051422 -0.441983312368392944
-0.00300000002607703209 0.381567955017089844 4.8109893798828125 0.950088977813720703 -0.256091147661209106 -0.178180485963821411
-5.00789737701416016 0.541980266571044922 0.00300000002607703209 -0.148522362112998962 -0.214256778359413147 -0.965419650077819824
-2.03593015670776367 3.25063562393188477 5.49700021743774414 0.644913971424102783 0.0746706724166870117 0.760598599910736084
-4.14782571792602539 0.505109250545501709 0.74832528829574585 -0.271856427192687988 -0.929739415645599365 -0.248351767659187317
-1.7472083568572998 0.229694604873657227 0.00300000002607703209 0.427750080823898315 -0.323901623487472534 -0.843870639801025391
-2.06447410583496094 2.13756155967712402 2.81480264663696289 0.327538907527923584 -0.644762396812438965 -0.690651655197143555
-2.94185876846313477 5.49700021743774414 1.84204220771789551 -0.369707673788070679 0.898795664310455322 0.235547423362731934
-0.00300000002607703209 3.06367588043212891 2.0550994873046875 0.998297750949859619 0.0559761226177215576 0.0163796171545982361
-5.49700021743774414 1.64242112636566162 5.12167167663574219 -0.715976297855377197 -0.335507094860076904 0.612219750881195068
-1.46551191806793213 1.85476863384246826 2.90811324119567871 -0.412495672702789307 -0.257283687591552734 -0.873872160911560059
-3.7572791576385498 3.19910717010498047 3.30299234390258789 -0.0911381840705871582 -0.267232656478881836 -0.959312200546264648
-4.01927757263183594 0.698101222515106201 0.930140852928161621 0.410205543041229248 0.874141097068786621 0.260016798973083496
-4.30264139175415039 0.090892501175403595 0.74832528829574585 0.757240414619445801 0.205298349261283875 -0.620031952857971191
-1.49726974964141846 1.71582746505737305 2.95799064636230469 -0.392848700284957886 -0.125496268272399902 -0.910999774932861328
-0.00300000002607703209 2.57183456420898438 4.51764869689941406 0.845918238162994385 0.00706610549241304398 -0.533265769481658936
-5.49700021743774414 4.56812572479248047 3.99674272537231445 -0.867319107055664062 0.0712538883090019226 -0.492626041173934937
-2.40921783447265625 1.31900382041931152 2.16188597679138184 0.641499161720275879 0.54740828275680542 0.537422657012939453
-3.97885656356811523 0.789126753807067871 0.903526902198791504 -0.693705379962921143 -0.707539677619934082 0.134760692715644836
-2.0720522403717041 -0.254607439041137695 0.00300000002607703209 -0.213902994990348816 -0.468862235546112061 -0.856979429721832275
-4.58379936218261719 0.183597564697265625 0.74832528829574585 0.100162208080291748 -0.108614400029182434 -0.989024996757507324
-0.519494056701660156 3.7730565071105957 5.49700021743774414 0.677549183368682861 -0.677301883697509766 0.286686748266220093
-3.84401774406433105 3.20551776885986328 3.30299234390258789 -0.335361570119857788 0.0900170803070068359 -0.937779009342193604
-1.71520137786865234 5.49700021743774414 5.16673469543457031 0.976485252380371094 0.175220876932144165 -0.12559548020362854
-3.88612270355224609 3.18394780158996582 3.30299234390258789 -0.730571448802947998 -0.543858349323272705 -0.412896573543548584
-0.00300000002607703209 4.84488630294799805 3.76907253265380859 0.952992796897888184 -0.185771942138671875 -0.23936055600643158
-1.77540707588195801 2.06099271774291992 1.79233348369598389 0.620249032974243164 -0.776298463344573975 -0.112480692565441132
-2.32424354553222656 2.13173508644104004 2.53008246421813965 0.692405283451080322 -0.601822435855865479 -0.3979758620262146
-0.720647335052490234 0.624538421630859375 0.00299952318891882896 -0.248394861817359924 -0.188307344913482666 -0.950179159641265869
-1.38011503219604492 2.1752619743347168 2.30891323089599609 -0.566858172416687012 -0.808801174163818359 -0.156565025448799133
-1.20793807506561279 5.49368000030517578 0.00300000002607703209 0.822243392467498779 -0.163496300578117371 -0.545146524906158447
-2.04316163063049316 1.28077578544616699 2.90038156509399414 0.269607126712799072 0.42171064019203186 -0.865720510482788086
-2.86975264549255371 3.52225971221923828 3.30299258232116699 0.22821044921875 0.803207039833068848 -0.550253093242645264
-3.35826230049133301 5.49700021743774414 4.63963794708251953 -0.381536126136779785 0.352165102958679199 -0.85464024543762207
-0.342118263244628906 5.49700021743774414 1.7629697322845459 0.231221422553062439 0.0721449479460716248 -0.970222532749176025
-0.00300000002607703209 4.93157768249511719 1.85196852684020996 0.655359506607055664 0.275633364915847778 -0.703228354454040527
-0.00300000002607703209 3.17410182952880859 3.4439232349395752 0.48227420449256897 0.644726395606994629 -0.59307628870010376
-1.12146186828613281 5.49700021743774414 4.27845001220703125 0.731363177299499512 0.654892265796661377 0.190326869487762451
-0.00299976160749793053 0.641379833221435547 3.40876913070678711 0.612168073654174805 -0.790326178073883057 -0.025194857269525528
-5.49700021743774414 4.9849390983581543 0.678823947906494141 -0.384211033582687378 0.591552019119262695 0.708835721015930176
-0.609237909317016602 4.15056896209716797 5.49700021743774414 0.80641782283782959 0.253592401742935181 0.534210741519927979
-0.00300000002607703209 3.66323375701904297 2.24257993698120117 0.691596925258636475 0.669422924518585205 0.271231710910797119
-0.108320713043212891 5.49700021743774414 0.889456510543823242 0.805218279361724854 0.390987932682037354 0.445816069841384888
-1.77744841575622559 1.79232048988342285 3.03947782516479492 -0.0303863175213336945 -0.267813205718994141 -0.962991595268249512
-0.00299952318891882896 2.68562841415405273 5.20051479339599609 0.997220754623413086 0.0241509471088647842 -0.0704802796244621277
-1.24496781826019287 5.48481845855712891 0.00300000002607703209 0.546951651573181152 -0.789212942123413086 -0.279261201620101929
-1.35111308097839355 5.49700021743774414 4.84551239013671875 0.803595840930938721 0.564636051654815674 -0.188201561570167542
-5.49700021743774414 0.785971999168395996 2.43144440650939941 -0.852283656597137451 -0.229082018136978149 0.470248907804489136
-5.49700021743774414 0.19227147102355957 0.742815256118774414 -0.737309277057647705 -0.158196568489074707 0.656771600246429443
-3.75645899772644043 0.646114826202392578 0.9362068772315979 -0.631163239479064941 0.767445206642150879 0.112520292401313782
-1.9639352560043335 5.49700021743774414 1.3695533275604248 0.447283685207366943 0.623683333396911621 -0.641058802604675293
-1.63372707366943359 5.49700021743774414 5.38159561157226562 0.187688052654266357 0.471443086862564087 -0.861692845821380615
-3.88552474975585938 5.49700021743774414 5.31955623626708984 0.247850522398948669 0.963637232780456543 -0.0998668372631072998
-3.48603272438049316 3.77032709121704102 3.30299234390258789 0.602510690689086914 0.297910362482070923 -0.740425348281860352
-5.49700021743774414 0.949552416801452637 1.96531796455383301 -0.75784069299697876 0.458048731088638306 0.464616835117340088
-3.29502558708190918 4.4963536262512207 1.82385969161987305 0.288604438304901123 -0.247717887163162231 -0.924847722053527832
-2.13581538200378418 1.16258478164672852 2.73433852195739746 0.428704947233200073 0.624778389930725098 -0.652582526206970215
-2.26491856575012207 1.17928922176361084 2.61286258697509766 0.618539690971374512 0.615836620330810547 -0.488010197877883911
-1.7170485258102417 1.87266135215759277 3.00939083099365234 -0.0830590277910232544 -0.293737530708312988 -0.952270746231079102
-0.00299952318891882896 0.701525688171386719 3.78218889236450195 0.768808662891387939 -0.627688288688659668 0.122231937944889069
-0.00300000002607703209 3.09786200523376465 2.16652011871337891 0.517146825790405273 -0.699161767959594727 0.493692189455032349
-1.5743410587310791 5.1605377197265625 5.49700021743774414 -0.115778759121894836 0.608304798603057861 0.785213708877563477
-1.00986349582672119 2.17574787139892578 1.65299630165100098 -0.453368782997131348 -0.74251246452331543 -0.493084162473678589
-2.3569180965423584 5.49700021743774414 0.26288604736328125 0.0768476203083992004 0.964264214038848877 0.253552615642547607
-0.00300000002607703209 0.0748534202575683594 4.66845893859863281 0.313160121440887451 -0.936720430850982666 -0.15647849440574646
-1.68557357788085938 1.49869823455810547 3.01443910598754883 -0.13110680878162384 0.163071036338806152 -0.977864384651184082
-2.29228949546813965 1.41860854625701904 2.82587432861328125 0.604959368705749512 0.266697108745574951 -0.750264585018157959
-4.75949001312255859 5.49700021743774414 5.47495365142822266 -0.862182140350341797 0.327452272176742554 -0.386544853448867798
-1.21510159969329834 -0.729241847991943359 5.49700021743774414 -0.0112898936495184898 -0.85194474458694458 0.5235099196434021
-1.32327651977539062 -0.841882228851318359 0.00300000002607703209 0.0711712166666984558 -0.746380805969238281 -0.661702573299407959
-4.18464469909667969 5.49700021743774414 4.60358953475952148 -0.767489016056060791 0.200061708688735962 -0.609045147895812988
-0.00300000002607703209 2.17165875434875488 2.33544015884399414 0.571960628032684326 -0.487823545932769775 -0.659461319446563721
-2.85586214065551758 3.62771320343017578 3.30299234390258789 0.835064113140106201 0.363728731870651245 -0.412758618593215942
-4.57738971710205078 0.45478057861328125 0.00300000002607703209 0.628336906433105469 0.178394168615341187 -0.757210850715637207
-5.49700021743774414 4.4571990966796875 3.56943178176879883 -0.423792421817779541 0.368805468082427979 -0.827274143695831299
