ply
format ascii 1.0
element vertex 380
property float x
property float y
property float z
property float nx
property float ny
property float nz
end_header
-1.92890989780426025 1.56942975521087646 3.04250407218933105 0.150857642292976379 0.118295103311538696 -0.981452107429504395
-2.42187380790710449 2.66921281814575195 0.170321166515350342 0.935745060443878174 -0.19673408567905426 0.292706072330474854
-5.49700021743774414 3.26758384704589844 0.759344100952148438 -0.765310883522033691 -0.447044909000396729 0.463087737560272217
-5.49700021743774414 3.42942547798156738 4.495452880859375 -0.545793116092681885 -0.719363391399383545 -0.429681479930877686
-5.49700021743774414 2.21677470207214355 4.6776738166809082 -0.335207611322402954 -0.877868831157684326 -0.342026501893997192
-2.69741415977478027 2.9478912353515625 1.89750552177429199 -0.537564575672149658 0.821327388286590576 0.190907388925552368
-5.49700021743774414 -0.579195261001586914 4.52543354034423828 -0.802009403705596924 -0.24088074266910553 -0.546586990356445312
-2.18441462516784668 1.06656670570373535 2.41352605819702148 0.495434045791625977 0.31960567831993103 -0.807711243629455566
-5.21442937850952148 4.99907588958740234 5.49700021743774414 0.60478973388671875 0.334196954965591431 0.722870528697967529
-3.17069649696350098 5.49700021743774414 4.47566127777099609 0.902696490287780762 0.0425754934549331665 -0.428166240453720093
-1.81680893898010254 1.92210650444030762 3.00348329544067383 -0.0294691883027553558 -0.35232880711555481 -0.935412228107452393
-0.00300000002607703209 1.08928143978118896 0.298952102661132812 0.90397036075592041 0.0171412769705057144 0.427251428365707397
-1.33864271640777588 -0.514244556427001953 5.49700021743774414 0.133386135101318359 -0.572701811790466309 0.808839499950408936
-2.57541704177856445 2.2582247257232666 5.49699926376342773 -0.335918813943862915 -0.383666247129440308 0.860208570957183838
-3.97874927520751953 3.30665755271911621 3.30299234390258789 0.0590873956680297852 -0.338592559099197388 -0.939075887203216553
-3.94365644454956055 5.49700021743774414 0.348105430603027344 -0.864575862884521484 0.304704397916793823 0.39957958459854126
-2.10257863998413086 2.16525554656982422 2.76144242286682129 0.391711652278900146 -0.71589970588684082 -0.577970266342163086
-1.94366896152496338 1.28502988815307617 1.65299618244171143 0.653093338012695312 0.393483281135559082 -0.647023975849151611
-5.49700021743774414 3.48001360893249512 1.03734982013702393 -0.209144428372383118 0.423121899366378784 0.881604492664337158
-5.49700021743774414 1.08903837203979492 4.36103487014770508 -0.641310334205627441 -0.736030042171478271 -0.216750621795654297
-5.49700021743774414 3.66055202484130859 5.04642105102539062 -0.742299318313598633 0.400996506214141846 0.536837458610534668
-2.11081242561340332 1.9436337947845459 2.93550515174865723 0.389861315488815308 -0.420973777770996094 -0.819017291069030762
-2.30060720443725586 2.05119132995605469 2.70669054985046387 0.650022745132446289 -0.56756889820098877 -0.505307912826538086
-4.57575511932373047 3.60297703742980957 2.67715334892272949 0.647828161716461182 -0.543329954147338867 0.533958077430725098
-5.49700021743774414 -0.00929021835327148438 4.15844345092773438 -0.831916928291320801 -0.385683834552764893 0.398952126502990723
-2.11054515838623047 1.65985798835754395 3.00005221366882324 0.45674210786819458 -0.00800331681966781616 -0.889563143253326416
-2.50936532020568848 1.70158302783966064 2.17473530769348145 0.590514659881591797 -0.444022595882415771 -0.673896431922912598
-2.66907548904418945 3.04582619667053223 0.86678016185760498 -0.895379543304443359 0.432929068803787231 0.104249179363250732
-1.95757138729095459 2.30801582336425781 2.13027167320251465 0.147089272737503052 -0.953108131885528564 0.264479875564575195
-5.49700021743774414 -0.612132549285888672 4.02833461761474609 -0.119254477322101593 0.0902644917368888855 -0.988752067089080811
-5.49700021743774414 3.77254199981689453 4.63165616989135742 -0.938656330108642578 0.00778344273567199707 0.344766199588775635
-5.49700021743774414 3.59135556221008301 3.75904297828674316 -0.930051922798156738 -0.134235471487045288 -0.34202951192855835
-2.75274276733398438 3.31553888320922852 1.27417373657226562 -0.429789692163467407 -0.812156260013580322 -0.394566893577575684
-3.67156028747558594 5.49700021743774414 5.05519533157348633 0.736830949783325195 0.30031508207321167 0.60571521520614624
-5.49700021743774414 5.30851173400878906 3.79737710952758789 -0.333716779947280884 -0.266604483127593994 0.904187560081481934
-0.00300023844465613365 2.8455657958984375 4.35910129547119141 0.957717776298522949 -0.0553440190851688385 -0.282336175441741943
-4.07973384857177734 5.49700021743774414 4.57564449310302734 0.5744284987449646 0.728436291217803955 -0.37337985634803772
-1.68498539924621582 5.49700069427490234 2.54345965385437012 -0.133467122912406921 0.968669354915618896 0.209442645311355591
-2.99137592315673828 2.36760568618774414 0.00300000002607703209 0.401759952306747437 0.0936137735843658447 -0.910947501659393311
-5.49700021743774414 3.33085513114929199 0.721486091613769531 -0.939951062202453613 0.309324324131011963 -0.144258409738540649
-0.583116292953491211 1.09925389289855957 5.49700021743774414 0.380002588033676147 -0.168885037302970886 0.909436881542205811
-3.42002367973327637 5.49700021743774414 4.62127542495727539 0.375384151935577393 0.902837991714477539 0.209690272808074951
-0.00300000002607703209 -0.176800727844238281 2.10160446166992188 0.97869950532913208 -0.00936716049909591675 -0.205084234476089478
-2.07877612113952637 1.37700140476226807 2.94456934928894043 0.327933251857757568 0.406868517398834229 -0.852594733238220215
-2.14871525764465332 2.1601555347442627 2.73424816131591797 0.447213947772979736 -0.709086179733276367 -0.545157372951507568
-1.1396794319152832 -0.754288911819458008 0.00299952318891882896 -0.155233040452003479 -0.503077030181884766 -0.850185990333557129
-2.25787138938903809 1.59554433822631836 2.91070175170898438 0.603193819522857666 0.0977746844291687012 -0.791579067707061768
-3.60896134376525879 4.39896726608276367 0.00438976241275668144 0.610691368579864502 -0.688943147659301758 0.390401512384414673
-3.7577216625213623 -0.447196006774902344 0.75047534704208374 0.670340418815612793 -0.681379020214080811 0.293881535530090332
-1.81847715377807617 1.70821547508239746 3.05299043655395508 0.00329788029193878174 -0.0819123685359954834 -0.996634006500244141
-1.55460691452026367 1.63288068771362305 2.98924064636230469 -0.0817215591669082642 -0.00285603292286396027 -0.996651113033294678
-5.44260883331298828 5.49700021743774414 5.02753639221191406 0.74341285228729248 0.426203399896621704 -0.515449285507202148
-2.07671403884887695 1.79972577095031738 2.99908113479614258 0.347378849983215332 -0.201705783605575562 -0.915774345397949219
-1.51316297054290771 1.5434114933013916 2.95674419403076172 -0.445289194583892822 0.162339508533477783 -0.880547285079956055
-2.17743635177612305 2.16745209693908691 2.69813823699951172 0.459875643253326416 -0.729233145713806152 -0.506688714027404785
-2.19316983222961426 1.38169646263122559 2.88621926307678223 0.506368160247802734 0.385470032691955566 -0.771365165710449219
-1.96770370006561279 1.60431051254272461 3.04060006141662598 0.175183892250061035 0.0736439824104309082 -0.981777548789978027
-1.67923200130462646 2.33583784103393555 2.38689255714416504 0.0290093161165714264 -0.584802687168121338 -0.810656726360321045
-4.64763879776000977 4.07676076889038086 2.72278308868408203 0.571000814437866211 -0.730252861976623535 -0.37508508563041687
-5.49700021743774414 3.9422142505645752 3.26177692413330078 -0.939373910427093506 0.303452610969543457 -0.159666001796722412
-4.05048131942749023 0.270376682281494141 0.74832528829574585 0.183284148573875427 -0.879292607307434082 -0.4396037757396698
-2.01235318183898926 2.12016606330871582 2.85365486145019531 0.246348708868026733 -0.638651490211486816 -0.728996992111206055
-2.19457745552062988 2.02065825462341309 2.83903002738952637 0.494857102632522583 -0.524786770343780518 -0.69261479377746582
-1.88152468204498291 1.20976197719573975 2.88001322746276855 0.176783859729766846 0.558443784713745117 -0.810486316680908203
-4.80156612396240234 1.81660211086273193 5.49700021743774414 -0.693757891654968262 0.0319758430123329163 0.719498217105865479
-2.22534704208374023 2.2351677417755127 2.44357109069824219 0.35623517632484436 -0.565602362155914307 -0.743767797946929932
-2.40709400177001953 1.93795299530029297 2.06309080123901367 0.681469857692718506 -0.343249738216400146 -0.646357893943786621
-2.43856453895568848 1.96427857875823975 2.54438567161560059 0.42466464638710022 -0.345549702644348145 -0.83681255578994751
-1.88976514339447021 2.0600428581237793 2.92717623710632324 0.0685776546597480774 -0.564704835414886475 -0.822438836097717285
-1.28414392471313477 2.05803155899047852 2.2574465274810791 -0.00120038539171218872 -0.592211723327636719 -0.80578148365020752
-2.037628173828125 2.0296628475189209 2.91633176803588867 0.27477872371673584 -0.538466215133666992 -0.796586990356445312
-3.82136821746826172 4.33307695388793945 1.2394026517868042 -0.235864207148551941 -0.82245635986328125 -0.517623007297515869
-1.96967613697052002 1.66572892665863037 3.04282164573669434 0.189100697636604309 0.00133192911744117737 -0.981956839561462402
-0.173692703247070312 0.256608486175537109 5.49700117111206055 0.580070436000823975 -0.260780125856399536 0.77169424295425415
-4.06083536148071289 3.97813010215759277 3.30299210548400879 -0.854145228862762451 0.165966197848320007 -0.492839932441711426
-3.56429481506347656 4.32514286041259766 3.30299210548400879 0.335711061954498291 0.85304570198059082 -0.399513661861419678
-5.49700021743774414 2.00285005569458008 0.151242494583129883 -0.903449118137359619 0.343464255332946777 0.256538450717926025
-3.04684662818908691 2.39396429061889648 5.49700021743774414 -0.347669124603271484 0.214982911944389343 0.912638545036315918
-3.75383901596069336 3.05420470237731934 3.30299258232116699 -0.195212453603744507 -0.222653403878211975 -0.955153107643127441
-3.65914034843444824 2.93045258522033691 3.30299258232116699 0.194630056619644165 -0.630274057388305664 -0.751580476760864258
-0.00300000002607703209 4.68282032012939453 2.02805495262145996 0.806791067123413086 0.0204286221414804459 0.590483546257019043
-1.88834095001220703 1.58291494846343994 3.04840898513793945 0.0743920356035232544 0.102697402238845825 -0.991927027702331543
-0.00300000002607703209 0.565977573394775391 1.72615337371826172 0.301427006721496582 -0.469756275415420532 -0.829741418361663818
-4.60596656799316406 2.33939290046691895 0.00300000002607703209 -0.880607545375823975 -0.0707847848534584045 -0.468529462814331055
-1.75221240520477295 2.060791015625 2.921112060546875 0.199005424976348877 -0.451809346675872803 -0.869635105133056641
-1.68384277820587158 1.46774983406066895 3.00512361526489258 -0.203730314970016479 0.27595829963684082 -0.939330101013183594
-5.49700021743774414 -0.781093120574951172 3.10909032821655273 -0.664457321166992188 -0.20360371470451355 0.719056248664855957
-5.34788608551025391 -0.873062610626220703 5.49700021743774414 -0.475923418998718262 -0.325609147548675537 0.816991806030273438
-2.82008695602416992 5.49700021743774414 0.645343542098999023 -0.623929977416992188 0.125117912888526917 0.771399319171905518
-1.96821951866149902 1.21484982967376709 2.87084627151489258 0.188997387886047363 0.649224162101745605 -0.736741542816162109
-1.17902112007141113 1.75009036064147949 2.52807807922363281 -0.55995023250579834 -0.10036255419254303 -0.822425127029418945
-3.84381556510925293 3.42957544326782227 3.30710649490356445 0.691965818405151367 0.72158515453338623 0.0223189573734998703
-2.30490946769714355 2.13001108169555664 2.13567900657653809 0.68745112419128418 -0.725735902786254883 0.0268031209707260132
-4.36380910873413086 5.49700021743774414 0.403364896774291992 0.451766431331634521 0.872389793395996094 0.186663106083869934
-2.85183048248291016 5.49700021743774414 3.40972375869750977 0.496699512004852295 0.86557382345199585 0.063809029757976532
-2.43279790878295898 1.93837857246398926 2.59673976898193359 0.872370541095733643 -0.352861702442169189 -0.338316917419433594
-2.78073906898498535 2.9220428466796875 0.468493938446044922 -0.192683488130569458 0.706950068473815918 -0.680510580539703369
-2.11839127540588379 1.19427633285522461 2.78568601608276367 0.398851752281188965 0.666830778121948242 -0.629487097263336182
-2.24480891227722168 1.51159882545471191 2.90321040153503418 0.575755059719085693 0.203117966651916504 -0.791990697383880615
-1.97085368633270264 1.43159043788909912 3.00045680999755859 0.22310657799243927 0.283593475818634033 -0.932629764080047607
-1.54473519325256348 1.85104775428771973 2.95686531066894531 -0.084213554859161377 -0.401339471340179443 -0.912049770355224609
-2.26050353050231934 1.89325106143951416 2.86341428756713867 0.593791425228118896 -0.337050020694732666 -0.730622410774230957
-0.00300000002607703209 3.19911551475524902 0.941331148147583008 0.708035588264465332 -0.649686276912689209 0.276755064725875854
-2.25690078735351562 5.49700021743774414 3.12316226959228516 0.608674943447113037 0.752344608306884766 -0.251976966857910156
-2.33110475540161133 2.09938955307006836 2.12958264350891113 0.825900018215179443 -0.561378002166748047 0.0523831695318222046
-0.866406440734863281 0.346018314361572266 0.00299976160749793053 0.863177061080932617 -0.237398713827133179 -0.445608824491500854
-1.82247459888458252 2.32817459106445312 2.55312991142272949 -0.0139223216101527214 -0.956789612770080566 -0.290447771549224854
-3.60852861404418945 4.72147560119628906 5.49699974060058594 0.349140048027038574 0.831929802894592285 0.431270301342010498
-5.49700021743774414 1.15450131893157959 2.52990889549255371 -0.988451361656188965 -0.145612835884094238 0.0419572144746780396
-1.59319925308227539 5.49700021743774414 4.63054990768432617 0.89519810676574707 0.443145692348480225 0.0473522394895553589
-1.71179139614105225 1.16795635223388672 2.82277083396911621 -0.194424942135810852 0.715280294418334961 -0.671247363090515137
-2.20069146156311035 1.77109098434448242 2.94428730010986328 0.296130746603012085 -0.0640744343400001526 -0.952995836734771729
-2.12366175651550293 1.25033390522003174 2.83796477317810059 0.422691285610198975 0.571593165397644043 -0.70328754186630249
-0.00300047686323523521 3.77100133895874023 2.66228389739990234 0.860937535762786865 -0.215267151594161987 -0.460919320583343506
-0.00300000002607703209 5.40460634231567383 3.62193870544433594 0.806490957736968994 -0.262349724769592285 -0.529853701591491699
-2.39983415603637695 1.80094635486602783 1.96831393241882324 0.706201493740081787 -0.225518941879272461 0.671133875846862793
-1.43424630165100098 1.84670734405517578 1.82875323295593262 -0.613139510154724121 -0.290942549705505371 0.734447002410888672
-4.5029149055480957 -0.289369106292724609 0.00300000002607703209 0.20008423924446106 -0.90359729528427124 -0.378785133361816406
-1.40300464630126953 2.09319067001342773 2.04005789756774902 -0.609588384628295898 -0.687338769435882568 0.394927054643630981
-5.49700021743774414 2.71582126617431641 5.49368858337402344 -0.497995972633361816 -0.848971426486968994 -0.176769837737083435
-5.49700021743774414 2.48651695251464844 5.39155483245849609 -0.763077020645141602 0.17108529806137085 0.623252391815185547
-3.43637347221374512 5.45599651336669922 0.00300000002607703209 -0.739951789379119873 -0.489901602268218994 -0.460942208766937256
-2.5754997730255127 5.49700021743774414 5.27854824066162109 0.0373003594577312469 0.32328757643699646 -0.945565342903137207
-1.76659524440765381 1.1767880916595459 2.84420228004455566 -0.111547186970710754 0.69864189624786377 -0.706722497940063477
-5.12147235870361328 2.83272290229797363 0.00300000002607703209 0.296693652868270874 -0.603522837162017822 -0.740089952945709229
-2.22748613357543945 1.81339442729949951 2.91740131378173828 0.536553442478179932 -0.205988600850105286 -0.818339228630065918
-2.34385991096496582 2.13689422607421875 2.42952585220336914 0.71349334716796875 -0.684765994548797607 -0.148401021957397461
-5.49700021743774414 1.23698282241821289 5.35686254501342773 -0.96341019868850708 0.12195451557636261 -0.238679364323616028
-3.52966213226318359 0.362866401672363281 0.74832528829574585 0.0169357620179653168 -0.512701272964477539 -0.85839998722076416
-1.85096192359924316 1.86812698841094971 3.02341818809509277 0.013916955329477787 -0.325837969779968262 -0.945323169231414795
-1.90798819065093994 2.09239602088928223 2.90125179290771484 0.103461325168609619 -0.596658170223236084 -0.795798301696777344
-1.62747430801391602 2.11615514755249023 1.65299642086029053 -0.146555870771408081 -0.914069831371307373 -0.378150403499603271
-0.00300000002607703209 4.02521419525146484 5.2664484977722168 0.977923810482025146 -0.203952208161354065 -0.0454808659851551056
-1.14307498931884766 3.0568232536315918 0.00300000002607703209 0.619373798370361328 0.142573952674865723 -0.772041976451873779
-2.21611785888671875 1.84800124168395996 2.91472625732421875 0.545969724655151367 -0.275386512279510498 -0.791251778602600098
-3.62787914276123047 -0.336981922388076782 0.74832528829574585 0.019215388223528862 0.67940986156463623 -0.733507335186004639
-2.72232317924499512 5.49699974060058594 3.54087400436401367 -0.0411515682935714722 0.859941720962524414 -0.508730590343475342
-0.00300000002607703209 4.94854974746704102 4.44300651550292969 0.973179638385772705 -0.209364220499992371 0.0953310057520866394
-5.49700021743774414 5.33958768844604492 3.70748472213745117 -0.917275011539459229 0.319857299327850342 0.237271606922149658
-2.16353225708007812 2.27085304260253906 2.4513242244720459 0.431435644626617432 -0.754826903343200684 -0.494064390659332275
-2.66499924659729004 2.04660177230834961 5.49700021743774414 -0.234939038753509521 0.112807899713516235 0.965442180633544922
-5.49700021743774414 2.61685538291931152 3.63733744621276855 -0.920570313930511475 0.23389020562171936 0.312803864479064941
-1.67553269863128662 1.43978512287139893 2.99359750747680664 -0.242756247520446777 0.298894882202148438 -0.922892928123474121
-3.46537590026855469 3.61662578582763672 3.49077391624450684 -0.506117820739746094 0.607672393321990967 0.612028598785400391
-1.95316851139068604 1.26944959163665771 2.91791415214538574 0.159039050340652466 0.533330202102661133 -0.830822110176086426
-1.71141016483306885 1.26167666912078857 2.90691137313842773 -0.182100117206573486 0.569720923900604248 -0.801409780979156494
-1.98116028308868408 2.01952338218688965 2.93929553031921387 0.196662664413452148 -0.495461761951446533 -0.846074104309082031
-0.00300000002607703209 -0.145036697387695312 4.24672746658325195 0.675750255584716797 0.0992366224527359009 -0.730420231819152832
-2.0311279296875 2.16086268424987793 2.80475831031799316 0.265526562929153442 -0.699820280075073242 -0.663134396076202393
-0.00300000002607703209 0.629508495330810547 3.99813985824584961 0.997400760650634766 -0.00141330272890627384 0.0720401257276535034
-2.20895242691040039 1.274658203125 1.91738104820251465 0.877352774143218994 0.170440927147865295 -0.448555588722229004
-2.06380605697631836 1.79898488521575928 3.00381636619567871 0.312440037727355957 -0.199016839265823364 -0.928856074810028076
-5.33048057556152344 5.49700021743774414 0.661922693252563477 0.0761989578604698181 0.988109827041625977 -0.133539110422134399
-0.00300000002607703209 4.86586761474609375 4.68201255798339844 0.974376142024993896 -0.0105806197971105576 0.224675655364990234
-1.41540908813476562 1.78445017337799072 2.89066362380981445 -0.612984061241149902 -0.187386736273765564 -0.767552495002746582
-2.23204636573791504 1.74766218662261963 1.65299630165100098 0.363367021083831787 -0.360289990901947021 -0.859159767627716064
-2.01100730895996094 2.28639507293701172 1.65299630165100098 -0.132652103900909424 0.619169712066650391 -0.773972034454345703
-4.67551898956298828 5.49700021743774414 5.41453409194946289 0.558328449726104736 0.82722783088684082 -0.062956005334854126
-2.38163661956787109 1.95592963695526123 2.68276500701904297 0.76985621452331543 -0.435376614332199097 -0.466656923294067383
-3.29633831977844238 4.49594640731811523 1.61385989189147949 0.427345782518386841 -0.300150275230407715 -0.852810263633728027
-1.91020488739013672 2.26675105094909668 2.69397187232971191 0.117905646562576294 -0.851374387741088867 -0.51113593578338623
-0.399527549743652344 4.60871315002441406 5.49700021743774414 0.741320788860321045 -0.66847074031829834 0.0599192418158054352
-1.82923305034637451 1.68801164627075195 3.05478239059448242 0.00367279862985014915 -0.0827956497669219971 -0.996559798717498779
-5.36093282699584961 2.13985586166381836 5.49700021743774414 0.3817024827003479 0.372319787740707397 0.845979452133178711
-3.52433919906616211 5.49700021743774414 3.64841508865356445 0.336278647184371948 0.905799508094787598 -0.257766485214233398
-2.3058619499206543 2.13515734672546387 2.56751632690429688 0.653896689414978027 -0.677649259567260742 -0.336467862129211426
-2.05677175521850586 1.05015873908996582 2.59244203567504883 0.298402965068817139 0.884690225124359131 -0.358160495758056641
-2.14962148666381836 2.02266240119934082 1.8487924337387085 0.463588833808898926 -0.507786035537719727 0.726112127304077148
-2.08469176292419434 2.23558163642883301 2.66713452339172363 0.36037936806678772 -0.806909739971160889 -0.467999458312988281
-1.88098740577697754 2.26429247856140137 2.70276999473571777 0.0651273578405380249 -0.855480849742889404 -0.513722658157348633
-2.25986456871032715 1.75512051582336426 2.90616273880004883 0.595803380012512207 -0.139573931694030762 -0.790909290313720703
-5.49700021743774414 3.11800813674926758 5.20934438705444336 -0.887324213981628418 -0.346645325422286987 -0.304126232862472534
-1.87832677364349365 1.25716078281402588 2.91869926452636719 0.0508879497647285461 0.554830431938171387 -0.830405712127685547
-4.34209108352661133 2.84973001480102539 2.07634425163269043 0.678680837154388428 0.729613959789276123 0.0839986652135848999
-2.15926384925842285 2.18778085708618164 2.03183627128601074 0.598619759082794189 -0.795938491821289062 0.0902012437582015991
-5.39010095596313477 4.94611263275146484 5.49700021743774414 0.292675137519836426 -0.92335975170135498 0.248491495847702026
-1.94947469234466553 1.14922428131103516 2.80860161781311035 0.168387144804000854 0.722890734672546387 -0.670130491256713867
-1.51741170883178711 -0.0786356925964355469 5.49700021743774414 0.0977822989225387573 -0.489144206047058105 0.866704702377319336
-3.81331229209899902 -0.468592733144760132 0.804994881153106689 0.897321879863739014 0.196813791990280151 0.395066887140274048
-2.19440031051635742 1.63453197479248047 2.95699930191040039 0.483443796634674072 0.0200421810150146484 -0.875145912170410156
-2.08947515487670898 2.28685808181762695 2.53453516960144043 0.321995258331298828 -0.91315007209777832 -0.249952256679534912
-3.33954143524169922 5.49700021743774414 3.81984806060791016 -0.235392719507217407 0.88074880838394165 0.410940170288085938
-2.68744564056396484 1.77927792072296143 0.564917683601379395 0.627672314643859863 -0.731935381889343262 0.265137940645217896
-1.92054831981658936 1.69220232963562012 3.04982972145080566 0.096298515796661377 -0.074898354709148407 -0.992530524730682373
-2.08512330055236816 2.03114676475524902 2.89623236656188965 0.330320894718170166 -0.514628767967224121 -0.791230320930480957
-1.307159423828125 2.05201220512390137 2.55969691276550293 -0.772742271423339844 -0.560269594192504883 -0.298273980617523193
-1.8003154993057251 1.22194755077362061 2.89019513130187988 -0.0364298075437545776 0.635570645332336426 -0.771182775497436523
-5.06599903106689453 3.36487579345703125 5.49700069427490234 0.10480104386806488 -0.31719660758972168 0.942551374435424805
-1.99051904678344727 1.77357757091522217 3.02947568893432617 0.224582329392433167 -0.154980748891830444 -0.962051868438720703
-1.09600389003753662 1.71087026596069336 1.65299642086029053 0.373404800891876221 -0.816025972366333008 -0.44121474027633667
-2.3426673412322998 1.9810032844543457 2.71974849700927734 0.769690632820129395 -0.4106597900390625 -0.488809645175933838
-1.8989633321762085 1.25921344757080078 1.65299618244171143 0.248579993844032288 0.469519376754760742 -0.84720689058303833
-4.56393861770629883 3.56488490104675293 3.18354225158691406 0.328544676303863525 0.842374742031097412 0.427157104015350342
-5.49700021743774414 3.07886838912963867 0.20422053337097168 -0.50100862979888916 0.508711636066436768 0.70014488697052002
-1.15602147579193115 1.6492011547088623 2.42370867729187012 -0.408674538135528564 -0.276960194110870361 -0.869642555713653564
-1.41449105739593506 2.4241180419921875 0.878449678421020508 0.587783157825469971 -0.807543456554412842 0.048831649124622345
-5.49700021743774414 0.651796817779541016 3.13147330284118652 -0.687171578407287598 -0.325040429830551147 0.649726033210754395
-1.72401225566864014 2.34290504455566406 2.42051959037780762 0.251574099063873291 -0.488476276397705078 -0.835524678230285645
-5.49700021743774414 5.43433523178100586 2.88633871078491211 -0.988035321235656738 -0.133550480008125305 0.077139437198638916
-5.49700021743774414 1.48595571517944336 0.0730040073394775391 -0.705242812633514404 0.584466278553009033 -0.401287615299224854
-4.74967193603515625 5.49700021743774414 2.96515130996704102 -0.631426751613616943 0.774580895900726318 0.0363967753946781158
-2.42829799652099609 1.90775704383850098 2.63787674903869629 0.823037147521972656 -0.373548269271850586 -0.42786872386932373
-1.63928449153900146 1.84129595756530762 2.99865365028381348 -0.295822203159332275 -0.261640399694442749 -0.918712973594665527
-3.91589641571044922 5.49700021743774414 3.09898233413696289 0.135670378804206848 0.925920844078063965 0.35251125693321228
-2.34968733787536621 1.91674494743347168 1.95789003372192383 0.743237078189849854 -0.314851760864257812 0.590311050415039062
-5.49699926376342773 5.14845895767211914 0.613452434539794922 -0.713445544242858887 -0.00910058338195085526 -0.700651586055755615
-0.00300000002607703209 1.89384245872497559 2.54590559005737305 0.598909914493560791 0.0740455985069274902 -0.797385931015014648
-1.45582163333892822 1.80120694637298584 2.91754913330078125 -0.336309522390365601 -0.289372086524963379 -0.896191835403442383
-0.00300000002607703209 3.34462761878967285 4.0296173095703125 0.547328710556030273 -0.827133774757385254 0.127597153186798096
-3.71921253204345703 3.57226324081420898 3.32754302024841309 0.481158047914505005 0.256788879632949829 0.838180363178253174
-2.22528529167175293 1.75778281688690186 2.9307408332824707 0.550043106079101562 -0.127861678600311279 -0.825290203094482422
-5.49700021743774414 2.5334618091583252 4.17132282257080078 -0.875205397605895996 0.213079214096069336 0.434296727180480957
-2.27954912185668945 1.50122475624084473 1.65299630165100098 -0.454423069953918457 -0.32567441463470459 -0.829117774963378906
-4.55453872680664062 3.53458237648010254 0.613696098327636719 0.296670705080032349 -0.447564393281936646 0.843606889247894287
-2.01886343955993652 1.96851873397827148 2.95795941352844238 0.25168299674987793 -0.425033211708068848 -0.869484066963195801
-2.08875131607055664 2.08864355087280273 2.84975194931030273 0.353091716766357422 -0.623344779014587402 -0.697687149047851562
-2.28034186363220215 1.89051556587219238 2.84758138656616211 0.642542719841003418 -0.322687327861785889 -0.694990396499633789
-5.49700021743774414 4.66054248809814453 2.02937698364257812 -0.612367928028106689 -0.52765423059463501 -0.588715970516204834
-2.47264957427978516 1.90626120567321777 2.51366066932678223 0.905539631843566895 -0.3470802903175354 -0.243994534015655518
-1.36567008495330811 1.91204273700714111 1.92186152935028076 -0.694517850875854492 -0.384714245796203613 0.607980251312255859
-4.06989049911499023 -0.491433531045913696 0.74832528829574585 -0.696897923946380615 0.322809338569641113 -0.640411972999572754
-5.49700069427490234 1.99769401550292969 5.38677120208740234 -0.728528738021850586 -0.643599629402160645 0.234574928879737854
-1.63070785999298096 2.25615954399108887 2.64823365211486816 -0.223174020648002625 -0.895249605178833008 -0.385644376277923584
-5.49700021743774414 3.62886810302734375 3.34031152725219727 -0.297894567251205444 -0.800408363342285156 -0.52019733190536499
-1.70158481597900391 5.49700021743774414 1.52210414409637451 0.836778759956359863 0.545929551124572754 0.0419786982238292694
-4.27758359909057617 5.49700021743774414 4.40627908706665039 0.456001996994018555 0.702078044414520264 0.546944797039031982
-5.49700021743774414 2.84559822082519531 2.08505940437316895 -0.32762572169303894 0.890433251857757568 0.315895587205886841
-2.16807794570922852 1.31846094131469727 2.86365938186645508 0.480649471282958984 0.478995203971862793 -0.73453366756439209
-0.00300047686323523521 1.78455078601837158 4.35187816619873047 0.985161900520324707 0.119062632322311401 -0.123612605035305023
-2.48647809028625488 1.4517829418182373 2.21953225135803223 0.727609217166900635 0.0802862495183944702 -0.681277453899383545
-2.27308559417724609 1.32382094860076904 1.93520379066467285 0.685913562774658203 0.32488599419593811 0.651131033897399902
-4.88631391525268555 5.49700021743774414 2.06366705894470215 -0.763428330421447754 0.563257575035095215 -0.316098213195800781
-4.38036346435546875 1.24481439590454102 0.00299952318891882896 0.368842065334320068 -0.814638912677764893 -0.447570085525512695
-2.35581541061401367 2.05845975875854492 2.60606861114501953 0.731078982353210449 -0.568630754947662354 -0.377071201801300049
-2.32942843437194824 1.64166843891143799 1.86375868320465088 0.585653185844421387 0.144734904170036316 0.797535061836242676
-1.67286777496337891 5.49700021743774414 4.25145339965820312 -0.104102432727813721 0.90594559907913208 -0.410396486520767212
-2.28599929809570312 2.17759251594543457 2.49858522415161133 0.566240072250366211 -0.580912470817565918 -0.584733128547668457
-2.48337769508361816 1.73644256591796875 2.61158132553100586 0.916389882564544678 -0.118698760867118835 -0.382282912731170654
-5.49700021743774414 4.49591922760009766 0.537786722183227539 -0.845693111419677734 0.1611957848072052 0.508742630481719971
-2.28854894638061523 1.51822066307067871 2.86971879005432129 0.649190783500671387 0.199951261281967163 -0.733873844146728516
-2.00776863098144531 1.8761821985244751 2.99986147880554199 0.250957489013671875 -0.316012024879455566 -0.914962649345397949
-0.00300000002607703209 4.84481287002563477 3.56404972076416016 0.899241149425506592 0.288966596126556396 -0.328426063060760498
-2.1479344367980957 1.58150768280029297 1.73941922187805176 0.530134916305541992 -0.262500375509262085 0.806257128715515137
-2.06534028053283691 1.75961697101593018 3.01029586791992188 0.32333683967590332 -0.155738711357116699 -0.933380365371704102
-2.19659256935119629 5.49700021743774414 4.6881103515625 0.276309043169021606 0.953334927558898926 -0.121679402887821198
-3.68576240539550781 2.0159916877746582 5.49700021743774414 -0.508548974990844727 0.0921854749321937561 0.856083869934082031
-2.31589555740356445 1.33466243743896484 2.74221515655517578 0.690825402736663818 0.467571914196014404 -0.551485955715179443
-1.46010613441467285 1.31162023544311523 2.8142857551574707 -0.535989046096801758 0.511672616004943848 -0.671496033668518066
-2.16299605369567871 1.84784221649169922 2.94712305068969727 0.467394798994064331 -0.266331791877746582 -0.842976570129394531
-4.88492059707641602 3.67749667167663574 5.49700021743774414 -0.382674962282180786 0.521439492702484131 0.762666881084442139
-2.01013588905334473 2.29526925086975098 2.58992600440979004 0.260731875896453857 -0.90491640567779541 -0.336370646953582764
-1.73748624324798584 2.00983810424804688 2.95166707038879395 -0.190269142389297485 -0.544455349445343018 -0.816924750804901123
-0.00300023844465613365 3.00658345222473145 1.09315299987792969 0.470888137817382812 0.197449758648872375 -0.859812736511230469
-2.05437088012695312 1.72158360481262207 3.01840400695800781 0.142096057534217834 -0.1086149662733078 -0.983875751495361328
-2.47702980041503906 1.93819582462310791 2.31373143196105957 0.912704944610595703 -0.406229376792907715 0.0441298782825469971
-1.56958949565887451 1.28014326095581055 2.86556720733642578 -0.391173571348190308 0.544847488403320312 -0.741703808307647705
-2.02155089378356934 1.74413871765136719 3.02597284317016602 0.248453587293624878 -0.118998870253562927 -0.961306452751159668
-0.00300000002607703209 1.21103227138519287 2.60491466522216797 0.846961498260498047 -0.527904391288757324 -0.0630340650677680969
-2.26171660423278809 2.21326327323913574 2.4075014591217041 0.516667783260345459 -0.746829628944396973 -0.418688416481018066
-5.49700021743774414 3.16054916381835938 5.36447811126708984 -0.240783378481864929 0.938891947269439697 -0.245978295803070068
-4.04849672317504883 3.56995058059692383 3.32831859588623047 0.482167959213256836 0.390322238206863403 0.784323036670684814
-2.29759955406188965 2.13446545600891113 2.13014984130859375 0.609424948692321777 -0.726752638816833496 0.316909968852996826
-2.2119903564453125 2.0852813720703125 2.76778411865234375 0.528447628021240234 -0.610473513603210449 -0.589970588684082031
-2.15894079208374023 1.79054796695709229 1.75227773189544678 0.472162008285522461 -0.237034827470779419 0.849045157432556152
-2.80816340446472168 1.37475013732910156 0.998100459575653076 -0.10756538063287735 -0.750650525093078613 -0.651884555816650391
-2.27322196960449219 2.1242682933807373 2.64708781242370605 0.622960686683654785 -0.657045960426330566 -0.424512267112731934
-4.38774394989013672 5.49700021743774414 3.54474210739135742 0.447119027376174927 0.878323376178741455 -0.169211730360984802
-5.49700021743774414 2.12409448623657227 0.355725288391113281 -0.963439464569091797 -0.20744776725769043 0.169557824730873108
-1.99793481826782227 1.055641770362854 2.64709258079528809 0.281567305326461792 0.169873654842376709 -0.944384932518005371
-2.71045064926147461 3.24918532371520996 0.00300023844465613365 0.096896827220916748 -0.291929185390472412 -0.951519012451171875
-2.12222719192504883 2.20880508422851562 2.6837775707244873 0.396174758672714233 -0.79053187370300293 -0.467016994953155518
-1.85445094108581543 2.16416621208190918 2.83926200866699219 0.024204624816775322 -0.710914254188537598 -0.702862143516540527
-2.02259492874145508 5.49700021743774414 1.84708476066589355 -0.0280972868204116821 0.988324761390686035 -0.149748325347900391
-1.05021452903747559 0.283715248107910156 5.49700021743774414 0.229889377951622009 -0.403807669878005981 0.885488748550415039
-3.6012873649597168 3.60379528999328613 3.30299234390258789 0.375818848609924316 0.742101609706878662 -0.555018007755279541
-5.49700021743774414 3.78678989410400391 5.43930768966674805 -0.816434741020202637 -0.323240488767623901 -0.478487133979797363
-2.02205801010131836 2.3326869010925293 2.34774017333984375 0.231539532542228699 -0.972742915153503418 0.0126760425046086311
-3.40881872177124023 5.49700021743774414 4.46169042587280273 -0.336077094078063965 0.831220388412475586 0.442860901355743408
-3.43247795104980469 3.73580336570739746 3.58970379829406738 -0.564683139324188232 -0.284735560417175293 0.774634480476379395
-4.00877618789672852 3.97995948791503906 3.30299210548400879 -0.0049234926700592041 -0.0669314861297607422 -0.997745394706726074
-1.19860363006591797 1.85391378402709961 2.51934456825256348 -0.428118705749511719 -0.3303794264793396 -0.84116816520690918
-1.59445726871490479 1.33474147319793701 2.91536378860473633 -0.370993912220001221 0.466222047805786133 -0.803119182586669922
-1.30920636653900146 2.03523683547973633 2.59408950805664062 -0.117568925023078918 -0.404009819030761719 -0.907167911529541016
-0.95440828800201416 2.29789090156555176 5.49700021743774414 0.272648751735687256 0.189977288246154785 0.943170726299285889
-1.50075888633728027 1.87528610229492188 2.92382097244262695 -0.104735523462295532 -0.179950565099716187 -0.978083968162536621
-2.41520047187805176 2.05339336395263672 2.37604808807373047 0.676184535026550293 -0.611195683479309082 -0.411356806755065918
-2.14122915267944336 1.04181265830993652 2.33452367782592773 0.928129196166992188 0.371224403381347656 -0.0277233123779296875
-5.02479696273803711 4.00734710693359375 0.00300000002607703209 -0.590507626533508301 -0.135044217109680176 -0.795653104782104492
-1.62587118148803711 2.14118385314941406 2.81221508979797363 -0.0949591398239135742 -0.467946559190750122 -0.878640294075012207
-1.85397350788116455 1.11754631996154785 2.78225898742675781 0.0262516196817159653 0.772157251834869385 -0.634889066219329834
-0.00300000002607703209 1.74827587604522705 3.80200362205505371 0.79781574010848999 0.0299461036920547485 0.602157354354858398
-3.52347087860107422 3.92349624633789062 3.30299210548400879 0.351897776126861572 0.420868456363677979 -0.836084604263305664
-2.63597583770751953 1.95175385475158691 0.0951212048530578613 0.95524299144744873 -0.111783646047115326 0.273889064788818359
-2.19896149635314941 1.30996024608612061 2.83601593971252441 0.529374063014984131 0.482277810573577881 -0.697976529598236084
-2.68584060668945312 3.09987115859985352 0.866086184978485107 -0.719128668308258057 0.441321194171905518 0.536739766597747803
-5.49700021743774414 -0.876764059066772461 0.475152015686035156 -0.461228549480438232 -0.464282393455505371 -0.756115138530731201
-1.65138256549835205 3.77120161056518555 5.49700117111206055 0.351856857538223267 -0.139384686946868896 0.92561805248260498
-3.69397902488708496 5.49700021743774414 2.32639145851135254 -0.424546480178833008 0.853674590587615967 -0.301662206649780273
-2.31648945808410645 2.1689915657043457 2.37113356590270996 0.687646269798278809 -0.667779684066772461 -0.284978717565536499
-4.68755340576171875 -0.590216159820556641 5.49700021743774414 0.915878593921661377 -0.172112271189689636 0.362689614295959473
-2.08079957962036133 2.03578519821166992 1.82170522212982178 0.605114758014678955 -0.662389457225799561 0.441674470901489258
-2.12238478660583496 1.52569878101348877 2.97910380363464355 0.405666977167129517 0.185209974646568298 -0.895059585571289062
-2.47177696228027344 1.40950655937194824 5.49699974060058594 0.593787729740142822 0.462713688611984253 0.658264517784118652
-0.00300000002607703209 3.90970301628112793 3.9950401782989502 0.85450977087020874 -0.426715046167373657 0.296188056468963623
-1.153511643409729 1.67249417304992676 2.32421994209289551 -0.890175104141235352 -0.178814709186553955 -0.41906273365020752
-2.06435179710388184 1.47685801982879639 2.9896852970123291 0.309716761112213135 0.242942839860916138 -0.919268369674682617
-5.49700021743774414 2.02356576919555664 2.14325332641601562 -0.982645153999328613 0.0415769517421722412 -0.18077617883682251
-5.49700021743774414 3.07037353515625 4.76452207565307617 -0.892710089683532715 -0.38248637318611145 0.238270685076713562
-3.58897256851196289 5.49700021743774414 5.19081211090087891 0.262050449848175049 0.886937797069549561 0.380356401205062866
-4.05677461624145508 0.695314943790435791 0.9075966477394104 0.460918337106704712 0.872551798820495605 0.161887660622596741
-4.18921136856079102 3.50055766105651855 4.39012384414672852 0.336936801671981812 -0.824180245399475098 -0.455192804336547852
-0.00300000002607703209 -0.597539663314819336 1.00352001190185547 0.533456861972808838 -0.486754328012466431 -0.691732585430145264
-2.24733400344848633 1.70527923107147217 2.92159080505371094 0.561081647872924805 -0.072637118399143219 -0.824567317962646484
-3.46431374549865723 5.49700021743774414 3.29062175750732422 0.589776873588562012 0.527428746223449707 -0.611540794372558594
-3.82009172439575195 4.20268535614013672 5.49700021743774414 -0.0291625745594501495 0.171097978949546814 0.984822332859039307
-3.75819730758666992 5.49700021743774414 5.2820892333984375 0.0130099356174468994 0.820348143577575684 0.571716248989105225
-0.00300000002607703209 0.686460256576538086 4.23952007293701172 0.937761068344116211 -0.272000491619110107 -0.21591639518737793
-4.18141746520996094 -0.383367776870727539 0.00300000002607703209 -0.626579403877258301 -0.405790925025939941 -0.665381014347076416
-2.25052237510681152 1.85465896129608154 2.88728928565979004 0.594476103782653809 -0.26617056131362915 -0.758782744407653809
-5.07213115692138672 5.49700021743774414 2.05438995361328125 0.559534430503845215 0.821531772613525391 -0.109575644135475159
-0.795558691024780273 1.11904311180114746 0.00300000002607703209 0.574917793273925781 -0.684945523738861084 -0.447570294141769409
-2.31870913505554199 1.72286820411682129 2.86014032363891602 0.695035696029663086 -0.103061974048614502 -0.711549997329711914
-3.37591814994812012 4.47126054763793945 3.13718795776367188 0.759395003318786621 -0.428166359663009644 -0.489890635013580322
-2.00669312477111816 1.14327645301818848 2.78363323211669922 0.254940688610076904 0.732176899909973145 -0.631602942943572998
-5.49700021743774414 2.35629510879516602 5.3214874267578125 -0.180286601185798645 0.536397933959960938 -0.824484109878540039
-2.1313483715057373 1.93070423603057861 2.93156242370605469 0.41220247745513916 -0.402453243732452393 -0.817386448383331299
-2.05052018165588379 1.92998385429382324 2.96610498428344727 0.302679687738418579 -0.393630743026733398 -0.868009090423583984
-0.00300000002607703209 -0.680086612701416016 4.23308944702148438 0.757097780704498291 -0.622677385807037354 -0.19767606258392334
-3.50918388366699219 2.69607281684875488 1.53658735752105713 -0.643491387367248535 0.358875453472137451 0.676111876964569092
-3.44200277328491211 3.19361972808837891 3.30299258232116699 -0.224932760000228882 -0.56995469331741333 -0.790289103984832764
-1.91848564147949219 1.41840720176696777 3.00369167327880859 0.0957470238208770752 0.332568764686584473 -0.938206076622009277
-3.41600871086120605 2.72497701644897461 2.60168218612670898 -0.825088024139404297 0.554268002510070801 0.109621614217758179
-4.70638942718505859 5.49700069427490234 4.18824529647827148 -0.726752102375030518 0.640155673027038574 -0.249062433838844299
-5.12834548950195312 -0.414510250091552734 5.49700069427490234 -0.485408246517181396 -0.368354231119155884 0.792902290821075439
-1.68675100803375244 1.69123339653015137 3.03559708595275879 -0.0732155963778495789 -0.231729388236999512 -0.97002112865447998
-2.11975383758544922 1.73609662055969238 2.99198508262634277 0.306155502796173096 -0.0672022923827171326 -0.949606537818908691
-2.03830456733703613 1.52627134323120117 3.01098990440368652 0.362416177988052368 0.186512917280197144 -0.913163423538208008
-2.15600252151489258 2.00066208839416504 2.8789217472076416 0.443598747253417969 -0.464473724365234375 -0.766475319862365723
-0.00300000002607703209 5.41252326965332031 3.91932535171508789 0.562322616577148438 0.0624606721103191376 -0.824555575847625732
-2.68878436088562012 5.49700021743774414 3.80687713623046875 -0.19918157160282135 0.918491184711456299 0.341615736484527588
-3.80432224273681641 5.49700021743774414 0.423358678817749023 -0.137762293219566345 0.851122379302978516 0.506569087505340576
-2.40436601638793945 1.26197123527526855 2.33186435699462891 0.655823051929473877 -0.149835795164108276 -0.73989558219909668
-2.20868706703186035 2.11670637130737305 2.73561882972717285 0.445784121751785278 -0.262369900941848755 -0.855826258659362793
-5.49700021743774414 4.24424362182617188 5.37023544311523438 -0.449694663286209106 -0.157251894474029541 -0.879230678081512451
-5.49700021743774414 0.330264806747436523 4.90257644653320312 -0.271290689706802368 0.330086022615432739 -0.904126405715942383
-1.58846926689147949 2.09928131103515625 1.88202691078186035 -0.37251746654510498 -0.599773168563842773 0.708168745040893555
-1.59235596656799316 1.25978529453277588 2.8614192008972168 -0.358132302761077881 0.566113054752349854 -0.742466986179351807
-5.41774797439575195 2.58146882057189941 0.00300000002607703209 0.049903329461812973 -0.190854981541633606 -0.980348944664001465
-2.49645042419433594 4.38238620758056641 5.49700069427490234 0.527989506721496582 -0.221698150038719177 0.819802999496459961
-1.99028539657592773 4.95753192901611328 0.00300000002607703209 0.626159131526947021 -0.488406121730804443 -0.607769906520843506
-1.98410964012145996 1.02454757690429688 2.57712888717651367 0.263332873582839966 0.914188027381896973 -0.308084428310394287
-2.22112798690795898 1.95574212074279785 2.86222171783447266 0.532086610794067383 -0.424550652503967285 -0.732557594776153564
-2.3333280086517334 1.17736184597015381 2.36707377433776855 0.756370246410369873 0.65077519416809082 -0.0663005039095878601
-5.49700021743774414 -0.45533442497253418 0.146288871765136719 -0.301962286233901978 -0.932847321033477783 0.196505993604660034
-5.49700021743774414 2.03140974044799805 3.0482783317565918 -0.825876593589782715 -0.123261116445064545 0.550213217735290527
-1.65340197086334229 1.9859621524810791 2.94379568099975586 -0.253772586584091187 -0.459648251533508301 -0.851071715354919434
-5.49700021743774414 0.0316023826599121094 5.20171737670898438 -0.106865189969539642 -0.986902594566345215 -0.120843060314655304
-1.5111624002456665 1.34930193424224854 2.87846970558166504 -0.453561484813690186 0.444574058055877686 -0.772422075271606445
-4.3790745735168457 2.96895027160644531 1.76256108283996582 0.625085711479187012 -0.322430670261383057 -0.710848987102508545
-4.39561986923217773 5.49700021743774414 5.23962974548339844 0.605761051177978516 0.457971274852752686 -0.650627315044403076
-0.00300023844465613365 2.11451148986816406 3.26332497596740723 0.963696122169494629 -0.107630833983421326 0.244346871972084045
-1.28168988227844238 1.83404755592346191 2.72547507286071777 -0.79835820198059082 -0.237953111529350281 -0.553174912929534912
-2.37821149826049805 1.65057623386383057 1.91734611988067627 0.287461280822753906 0.58433300256729126 0.758894562721252441
-5.49700021743774414 2.04963874816894531 1.23720765113830566 -0.802264869213104248 -0.574542760848999023 -0.162085697054862976
-3.39360618591308594 2.38734078407287598 0.00299976160749793053 -0.0065906294621527195 -0.119408018887042999 -0.992823421955108643
-2.41130399703979492 2.05797195434570312 2.39445042610168457 0.747526049613952637 -0.527837753295898438 -0.40322721004486084
-1.61840307712554932 1.52952098846435547 3.00163936614990234 -0.292138874530792236 0.174908190965652466 -0.940245687961578369
-4.36338090896606445 2.91836023330688477 0.650871336460113525 0.76323235034942627 -0.373979866504669189 -0.526892244815826416
-2.12760472297668457 0.835355281829833984 5.49700021743774414 -0.0866809189319610596 -0.262131273746490479 0.961131572723388672
-2.09445714950561523 1.60520362854003906 3.00371766090393066 0.354468166828155518 0.0661588311195373535 -0.932724714279174805
-1.64815568923950195 1.72657132148742676 3.0227668285369873 -0.284953474998474121 -0.108880728483200073 -0.952337384223937988
-5.49700021743774414 1.72255456447601318 5.08061504364013672 -0.794379949569702148 0.36760219931602478 -0.483558803796768188
-2.63762903213500977 1.12757289409637451 1.65299618244171143 -0.11425299197435379 -0.550761044025421143 -0.826806187629699707
-1.91260695457458496 1.05473423004150391 2.6766960620880127 0.164997473359107971 0.868451714515686035 -0.467511922121047974
-1.66352057456970215 1.7628638744354248 3.02277612686157227 -0.258558779954910278 -0.160786628723144531 -0.952520370483398438
-1.72408556938171387 2.07709383964538574 1.81297397613525391 -0.102654352784156799 -0.615848660469055176 0.781148195266723633
-2.31515836715698242 1.98923611640930176 2.74867367744445801 0.422152578830718994 -0.204198122024536133 -0.883227229118347168
-1.64584851264953613 1.45594942569732666 2.9905543327331543 -0.262107223272323608 0.288001120090484619 -0.921061992645263672
-0.00300000002607703209 4.42519569396972656 3.82040023803710938 0.525258541107177734 0.750824093818664551 0.400458037853240967
-2.24653005599975586 2.08237695693969727 2.7365717887878418 0.572874605655670166 -0.605715334415435791 -0.552198946475982666
