ply
format ascii 1.0
element vertex 378
property float x
property float y
property float z
property float nx
property float ny
property float nz
end_header
-2.10668182373046875 4.45972919464111328 0.00300000002607703209 -0.774420380592346191 0.49575042724609375 -0.393070757389068604
-1.55287766456604004 2.13756394386291504 1.94334578514099121 -0.374028027057647705 -0.676830053329467773 0.634038090705871582
-2.05535674095153809 2.04889154434204102 5.49700021743774414 -0.0635235458612442017 0.124169722199440002 0.990225493907928467
-1.56570303440093994 2.28667044639587402 2.24015116691589355 -0.046862427145242691 -0.718650460243225098 -0.693790674209594727
-2.10100984573364258 2.16340327262878418 2.7648155689239502 0.359891384840011597 -0.714011192321777344 -0.600554943084716797
-0.00300000002607703209 0.309811830520629883 0.569401979446411133 0.820954442024230957 -0.50325310230255127 0.26975935697555542
-5.49700021743774414 0.510859251022338867 4.73225831985473633 -0.384724915027618408 -0.545531272888183594 -0.74456864595413208
-0.0390608310699462891 2.33719706535339355 5.49700021743774414 -0.63133925199508667 0.607693016529083252 0.48178824782371521
-4.73621463775634766 4.56676959991455078 0.00300000002607703209 -0.347004324197769165 -0.0870564728975296021 -0.933814287185668945
-1.71828579902648926 1.99837601184844971 2.95457983016967773 -0.176735967397689819 -0.47498166561126709 -0.862065494060516357
-0.00300000002607703209 3.10726165771484375 2.79716634750366211 0.832933604717254639 0.43358302116394043 0.343842238187789917
-0.0642676353454589844 4.12012910842895508 5.49700021743774414 -0.451204806566238403 0.804264724254608154 0.386745959520339966
-0.00300000002607703209 4.85061025619506836 0.1128082275390625 0.709332704544067383 0.6415252685546875 -0.292048752307891846
-5.49700021743774414 1.29049491882324219 4.58560562133789062 -0.21538601815700531 -0.958037793636322021 0.189136147499084473
-1.84448623657226562 2.20788311958312988 1.9276130199432373 0.383395165205001831 -0.797860503196716309 0.465216964483261108
-2.43111133575439453 5.49700021743774414 2.50249767303466797 0.219713479280471802 0.540088057518005371 0.812422871589660645
-1.70879983901977539 1.98494613170623779 1.75679576396942139 -0.0452370047569274902 -0.191298156976699829 0.980489015579223633
-0.0118756294250488281 5.49700021743774414 4.78540706634521484 -0.554485082626342773 0.795546293258666992 0.244238346815109253
-3.44680190086364746 0.326842606067657471 0.836313843727111816 0.115190677344799042 0.964778602123260498 0.236502453684806824
-1.5006859302520752 3.71380424499511719 0.00300000002607703209 -0.586239457130432129 0.633979916572570801 -0.504373669624328613
-0.00300000002607703209 2.98414778709411621 2.24950551986694336 0.806480109691619873 0.578723549842834473 -0.121115192770957947
-4.58115768432617188 0.240172743797302246 0.749843597412109375 -0.706947445869445801 -0.698841631412506104 0.108838029205799103
-2.31526637077331543 2.0188746452331543 2.72157764434814453 0.635677516460418701 -0.518998563289642334 -0.571449577808380127
-2.09474468231201172 1.92670059204101562 5.49700021743774414 -0.575734734535217285 -0.787109971046447754 0.221331089735031128
-2.42403674125671387 1.75329172611236572 2.72559285163879395 0.798311948776245117 -0.165679812431335449 -0.57900625467300415
-4.03563642501831055 1.71019482612609863 0.00300000002607703209 0.0443423688411712646 0.822452306747436523 -0.567103207111358643
-1.76256692409515381 2.09048128128051758 2.90043902397155762 -0.0637852475047111511 -0.59128868579864502 -0.803933620452880859
-1.84402823448181152 1.86173880100250244 5.49700021743774414 0.586447179317474365 -0.348770499229431152 0.73105323314666748
-0.00300000002607703209 4.21725606918334961 3.70532321929931641 0.601575493812561035 0.717517077922821045 0.351106226444244385
-2.32268977165222168 3.16045808792114258 5.49700021743774414 -0.583817541599273682 0.583944499492645264 0.564061999320983887
-1.26155281066894531 1.26801216602325439 1.65299606323242188 -0.603070259094238281 0.204967409372329712 -0.770905077457427979
-1.51345610618591309 1.43529999256134033 2.92365384101867676 0.00892531219869852066 -0.641635537147521973 -0.766957759857177734
-1.35868930816650391 2.13809084892272949 2.49578070640563965 -0.765722870826721191 -0.624438226222991943 -0.15409541130065918
-1.33069837093353271 1.9682847261428833 2.71051120758056641 -0.722646713256835938 -0.421627998352050781 -0.547733128070831299
-2.04141092300415039 1.99392366409301758 1.77944397926330566 0.414716184139251709 -0.375417172908782959 0.828898370265960693
-3.48248910903930664 3.42281627655029297 3.30299234390258789 0.166242003440856934 -0.543351113796234131 -0.822880744934082031
-1.30454623699188232 2.1685798168182373 1.65299582481384277 0.182439818978309631 -0.776890039443969727 -0.602625608444213867
-2.03748059272766113 1.3263174295425415 2.93228554725646973 0.293736755847930908 0.464826732873916626 -0.835257291793823242
-2.46342849731445312 1.90294742584228516 2.55186963081359863 0.883518338203430176 -0.341202199459075928 -0.320899367332458496
-5.49700117111206055 5.40605306625366211 4.12411212921142578 -0.830521643161773682 0.543951332569122314 -0.119794458150863647
-0.0669233798980712891 0.266085147857666016 5.49700021743774414 -0.945963025093078613 0.182954162359237671 0.267734408378601074
-0.0762453079223632812 0.793353080749511719 0.00300000002607703209 -0.560440123081207275 -0.0852517634630203247 -0.823795497417449951
-2.0060577392578125 5.49700021743774414 3.36079311370849609 0.804464221000671387 0.581471562385559082 0.121359884738922119
-0.407099246978759766 0.865934848785400391 5.49700021743774414 -0.0689919516444206238 -0.757236480712890625 0.649486720561981201
-1.37846004962921143 1.69766855239868164 1.84502613544464111 -0.744652152061462402 -0.00104087032377719879 0.667451977729797363
-0.00299976160749793053 3.76061677932739258 3.8348538875579834 0.535888254642486572 -0.134908527135848999 0.833440780639648438
-0.00300000002607703209 0.614094734191894531 4.44287681579589844 0.625884652137756348 -0.325272202491760254 0.708848834037780762
-2.09042811393737793 5.49700021743774414 3.96105289459228516 0.227657988667488098 0.830392122268676758 -0.508547663688659668
-3.37976217269897461 2.2514040470123291 5.49700021743774414 -0.139656335115432739 -0.339150160551071167 0.930308163166046143
-2.37367033958435059 1.2397078275680542 2.48449349403381348 0.782271742820739746 0.577924549579620361 -0.232495754957199097
-1.04063570499420166 5.29780483245849609 0.00300000002607703209 0.747779905796051025 0.450072884559631348 -0.488118588924407959
-5.49699926376342773 0.760699748992919922 2.35495114326477051 -0.599078834056854248 -0.650121092796325684 -0.467383325099945068
-0.0226471424102783203 -0.346399068832397461 5.49700021743774414 -0.0908377692103385925 0.340540945529937744 0.935831367969512939
-1.69923961162567139 2.3192288875579834 2.52942705154418945 -0.129785120487213135 -0.950471282005310059 -0.282418429851531982
-4.01736354827880859 0.551509261131286621 0.0766552910208702087 -0.352150589227676392 -0.614759147167205811 0.705734431743621826
-4.60944175720214844 4.46477317810058594 0.00300000002607703209 -0.781754374504089355 -0.126851305365562439 -0.610548019409179688
-3.57862615585327148 2.67453145980834961 1.84109485149383545 0.244325682520866394 0.913323938846588135 0.325798213481903076
-1.65957784652709961 2.31987547874450684 2.48079776763916016 -0.251176714897155762 -0.938280582427978516 -0.237780958414077759
-3.08961296081542969 4.40148401260375977 1.94365167617797852 -0.89492642879486084 -0.0178212858736515045 0.445857733488082886
-0.358793258666992188 -0.781215667724609375 5.49700021743774414 0.361554861068725586 -0.601397573947906494 0.71246039867401123
-5.49699926376342773 -0.188495159149169922 3.25069761276245117 -0.929497599601745605 -0.205844104290008545 0.30604320764541626
-2.85217428207397461 2.89988327026367188 1.31103360652923584 -0.745206952095031738 0.279338240623474121 0.605505406856536865
-1.97441256046295166 0.951770186424255371 5.49700021743774414 0.352867603302001953 -0.320368260145187378 0.879118144512176514
-3.25408101081848145 5.49700021743774414 0.650688886642456055 -0.154585406184196472 0.982443630695343018 -0.104440480470657349
-1.73928642272949219 2.03554558753967285 2.9361720085144043 -0.122064903378486633 -0.521147847175598145 -0.84469228982925415
-1.72741031646728516 1.77426624298095703 5.49700021743774414 0.0183154046535491943 -0.937135815620422363 0.348483949899673462
-0.00300000002607703209 5.28431367874145508 4.80603456497192383 0.632942438125610352 0.671120822429656982 -0.385980188846588135
-1.13278019428253174 1.19788980484008789 0.380642175674438477 -0.957715332508087158 0.160256654024124146 0.238954260945320129
-1.62644815444946289 1.97981250286102295 2.93777918815612793 -0.273895561695098877 -0.437493443489074707 -0.856493294239044189
-0.00300023844465613365 5.08482551574707031 2.21355867385864258 0.930588603019714355 -0.366065919399261475 0.000783031049650162458
-1.33483600616455078 1.68330717086791992 1.88807296752929688 -0.794598519802093506 0.0182092338800430298 0.606862127780914307
-0.0652523040771484375 2.06175398826599121 0.00300047686323523521 -0.0134787792339920998 -0.0815374255180358887 -0.996579110622406006
-2.26124835014343262 2.15066218376159668 2.61996698379516602 0.591715455055236816 -0.696296453475952148 -0.406256198883056641
-2.0596308708190918 2.19217562675476074 2.75239443778991699 0.28059995174407959 -0.745047152042388916 -0.605118513107299805
-1.58256089687347412 2.13414430618286133 2.79634547233581543 -0.349940001964569092 -0.661522388458251953 -0.663272380828857422
-1.80181312561035156 2.27702212333679199 2.03782033920288086 -0.102248966693878174 -0.83237159252166748 0.544704318046569824
-0.00300000002607703209 1.86501729488372803 4.15631866455078125 0.908079802989959717 -0.417573034763336182 0.0319932103157043457
-1.43074691295623779 4.54701995849609375 5.49700021743774414 -0.0307390261441469193 -0.744121730327606201 0.667336463928222656
-3.9041438102722168 4.30739927291870117 0.751653730869293213 -0.0789886489510536194 -0.706599414348602295 -0.70319133996963501
-1.89846241474151611 1.53017497062683105 3.03879356384277344 0.0990501940250396729 0.171967357397079468 -0.980110347270965576
-2.44489717483520508 5.49700021743774414 3.98647093772888184 -0.13098984956741333 0.920865893363952637 0.367216646671295166
-0.51373600959777832 5.49700021743774414 1.48899221420288086 -0.0688607469201087952 0.844307065010070801 -0.531416773796081543
-3.80813312530517578 5.49700021743774414 2.81508731842041016 -0.0329856127500534058 0.736650705337524414 -0.675468564033508301
-1.79706358909606934 1.66323161125183105 3.05325722694396973 -0.0387407466769218445 0.00448638387024402618 -0.999239206314086914
-2.8733675479888916 3.70438957214355469 2.28392601013183594 -0.897118270397186279 0.234756126999855042 -0.374257087707519531
-1.0625234842300415 1.68305003643035889 1.65299642086029053 -0.42933201789855957 -0.514047741889953613 -0.742582559585571289
-4.50575685501098633 -0.184484511613845825 0.74832528829574585 0.598663568496704102 0.191698849201202393 -0.777723252773284912
-3.50030803680419922 5.06727313995361328 5.49700021743774414 -0.182632327079772949 0.532283008098602295 0.826631844043731689
-0.00300000002607703209 2.67313933372497559 3.38713955879211426 0.386185199022293091 0.127896562218666077 0.91351163387298584
-1.82221817970275879 1.744529128074646 3.04976463317871094 -0.0166237801313400269 -0.140246495604515076 -0.989977061748504639
-1.79117536544799805 2.03506708145141602 2.94342446327209473 -0.0303505808115005493 -0.530366182327270508 -0.847225189208984375
-3.95468354225158691 2.72943210601806641 3.30299258232116699 -0.418204247951507568 -0.784370779991149902 -0.458113133907318115
-5.49700021743774414 3.26321554183959961 4.68364524841308594 -0.452029705047607422 -0.796033203601837158 0.402492552995681763
-3.40011930465698242 0.822106838226318359 0.00300000002607703209 0.103267587721347809 0.435563772916793823 -0.894214749336242676
-1.88101541996002197 1.27456331253051758 2.93086552619934082 0.0503127314150333405 0.53184819221496582 -0.845343828201293945
-4.13852262496948242 4.23469257354736328 0.0998036861419677734 -0.563365161418914795 -0.823360145092010498 0.0685401856899261475
-2.00240755081176758 1.0189967155456543 2.54610967636108398 0.230877846479415894 0.915638089179992676 -0.329093128442764282
-2.38128471374511719 1.80292379856109619 2.77322769165039062 0.729705810546875 -0.197356969118118286 -0.65465998649597168
-0.00300000002607703209 3.62614536285400391 0.81890416145324707 0.878038883209228516 0.377600640058517456 -0.294050216674804688
-2.06031155586242676 1.92290091514587402 2.96574592590332031 0.335480660200119019 -0.350726723670959473 -0.874324679374694824
-1.19629979133605957 1.5889354944229126 2.58878350257873535 -0.922085762023925781 -0.0161366090178489685 -0.38664931058883667
-2.22400331497192383 1.7013089656829834 5.49700021743774414 0.0262389220297336578 -0.173954799771308899 0.984404027462005615
-0.296583890914916992 5.49700021743774414 0.387048959732055664 -0.59349590539932251 0.767734289169311523 -0.241550520062446594
-0.319958925247192383 5.17799282073974609 5.49700021743774414 -0.183279559016227722 0.298562437295913696 0.936626434326171875
-5.49700021743774414 3.75499582290649414 4.40145683288574219 -0.982378900051116943 -0.162032768130302429 0.0931508094072341919
-1.07086145877838135 1.40538036823272705 1.49406981468200684 -0.392150223255157471 -0.0983400046825408936 -0.914629697799682617
-0.00300000002607703209 0.451018810272216797 0.331895828247070312 0.262092500925064087 -0.535153567790985107 0.803067982196807861
-1.78332090377807617 3.55692386627197266 5.49700021743774414 -0.77057415246963501 -0.557827293872833252 0.30829232931137085
-2.95009660720825195 5.43909502029418945 0.00300000002607703209 0.093535199761390686 -0.225028976798057556 -0.969852089881896973
-0.166949987411499023 3.01435375213623047 5.49700021743774414 -0.725943386554718018 -0.0867658182978630066 0.682259440422058105
-2.25635623931884766 1.36568748950958252 2.82799839973449707 0.581336677074432373 0.366938173770904541 -0.726225852966308594
-2.50278186798095703 2.39808821678161621 0.485905855894088745 0.43381655216217041 -0.729936540126800537 0.528200626373291016
-0.274355888366699219 -0.528372049331665039 5.49700021743774414 -0.222329065203666687 0.380458056926727295 0.897675573825836182
-0.0609261989593505859 2.31369304656982422 0.00300023844465613365 0.665022790431976318 -0.435844630002975464 -0.60645216703414917
-3.3513336181640625 3.36254048347473145 4.08655071258544922 -0.828659355640411377 -0.539998888969421387 -0.147393673658370972
-3.77440834045410156 3.9411919116973877 3.50699043273925781 -0.639645993709564209 0.335159033536911011 0.691752433776855469
-0.00300000002607703209 5.37174892425537109 4.16680288314819336 0.877933979034423828 0.452110648155212402 0.157568931579589844
-4.35047388076782227 4.01175403594970703 5.49700021743774414 0.433477044105529785 -0.768442988395690918 0.470736682415008545
-2.2148129940032959 2.12722158432006836 2.7164454460144043 0.516654908657073975 -0.64064788818359375 -0.568012356758117676
-0.09037017822265625 2.17981576919555664 5.49700021743774414 -0.342996388673782349 -0.816432535648345947 0.464533537626266479
-2.94685482978820801 2.18564176559448242 5.49700021743774414 0.0842730253934860229 0.278404891490936279 0.956759512424468994
-1.03425431251525879 5.49700021743774414 2.19788622856140137 0.252568900585174561 0.963702261447906494 -0.0865277349948883057
-0.454022884368896484 4.29501914978027344 5.49700021743774414 -0.240787044167518616 -0.524503767490386963 0.816650092601776123
-3.0369877815246582 2.84255266189575195 2.73426604270935059 -0.750594973564147949 0.343475997447967529 0.56447446346282959
-1.77690768241882324 1.89793205261230469 5.49700021743774414 0.0199891030788421631 0.0697919279336929321 0.997361242771148682
-1.96242606639862061 2.16806530952453613 2.82019639015197754 0.172426134347915649 -0.718766927719116211 -0.67353057861328125
-2.6647026538848877 3.03173041343688965 0.180560588836669922 -0.988093137741088867 0.0456742271780967712 -0.146921202540397644
-1.58619117736816406 1.8520735502243042 2.97570347785949707 -0.404821306467056274 -0.19171576201915741 -0.894072055816650391
-3.06665253639221191 2.68716883659362793 5.49700021743774414 0.0240132957696914673 -0.195761233568191528 0.980357587337493896
-1.17913913726806641 4.4106903076171875 5.49700021743774414 -0.248224794864654541 0.841127455234527588 0.480509132146835327
-4.11317253112792969 3.25708436965942383 3.41243791580200195 -0.0822978392243385315 0.983885824680328369 0.158731669187545776
-1.94520664215087891 2.03012299537658691 2.94010043144226074 0.165216356515884399 -0.487715363502502441 -0.85722649097442627
-4.43342828750610352 5.49700021743774414 5.16329860687255859 -0.377350091934204102 0.724573016166687012 -0.576715528964996338
-5.49700021743774414 0.253539085388183594 3.31544160842895508 -0.748361945152282715 -0.602359294891357422 -0.277700692415237427
-1.1050727367401123 3.08458828926086426 5.49700021743774414 0.0164417419582605362 0.0287880152463912964 0.999450325965881348
-2.31141138076782227 1.45562517642974854 2.82515048980712891 0.655735254287719727 0.276189595460891724 -0.70265960693359375
-3.6255335807800293 1.94948720932006836 5.49700021743774414 -0.507044434547424316 0.0667910724878311157 0.859328627586364746
-5.49700021743774414 4.64710092544555664 0.152308225631713867 -0.715475976467132568 0.477554887533187866 0.509936690330505371
-4.89900636672973633 5.23718070983886719 5.49700021743774414 -0.591942310333251953 0.340335577726364136 0.730599761009216309
-1.30765628814697266 5.49700021743774414 4.45771503448486328 0.0661001801490783691 0.664474427700042725 0.744381964206695557
-1.20467329025268555 2.39450979232788086 5.49700021743774414 -0.69317549467086792 -0.393048942089080811 0.604169011116027832
-2.79653000831604004 3.45669364929199219 2.54091167449951172 -0.732798993587493896 -0.0991874188184738159 -0.673177182674407959
-0.10988616943359375 5.49700021743774414 2.86214756965637207 -0.083494529128074646 0.472466051578521729 -0.87738502025604248
-2.1637427806854248 2.26056909561157227 2.50348496437072754 0.442663282155990601 -0.245459556579589844 -0.862437725067138672
-4.93510198593139648 5.49700021743774414 1.30241227149963379 -0.880172431468963623 0.40197455883026123 0.252414345741271973
-3.4877164363861084 2.70273232460021973 2.41065835952758789 -0.844499945640563965 0.535066008567810059 -0.0229015350341796875
-1.0914992094039917 2.32773184776306152 0.465262889862060547 -0.946616470813751221 -0.272027373313903809 0.172969251871109009
-2.11043095588684082 1.20388054847717285 2.80134868621826172 0.369194865226745605 0.613931059837341309 -0.69769895076751709
-2.34040093421936035 1.71470987796783447 2.83945202827453613 0.717076301574707031 -0.359887123107910156 -0.596894264221191406
-4.4888300895690918 5.3525543212890625 0.00300000002607703209 -0.989968061447143555 -0.111426495015621185 -0.0868758559226989746
-2.0228571891784668 1.8122713565826416 3.01379036903381348 0.253050148487091064 -0.194052979350090027 -0.947791695594787598
-2.81288957595825195 3.509429931640625 0.0469022989273071289 -0.956791162490844727 -0.289771497249603271 0.02414751797914505
-5.49700021743774414 5.45788764953613281 0.321527242660522461 -0.884531915187835693 0.466452062129974365 -0.00507447170093655586
-2.67929744720458984 3.06630396842956543 3.30299258232116699 0.478068530559539795 -0.460089296102523804 -0.748176693916320801
-0.00300000002607703209 4.89108467102050781 0.0550830364227294922 0.68469691276550293 0.673762083053588867 0.277911573648452759
-4.11493110656738281 5.49700021743774414 3.02733135223388672 -0.451755434274673462 0.88583219051361084 0.105916984379291534
-1.94752371311187744 5.26232099533081055 0.00300000002607703209 0.102262847125530243 -0.139661997556686401 -0.984904468059539795
-1.16260957717895508 2.3489525318145752 0.739836156368255615 0.279702663421630859 -0.921988725662231445 -0.267774909734725952
-0.870804786682128906 5.49700021743774414 3.12552046775817871 -0.745966255664825439 0.569878280162811279 0.344634681940078735
-0.00300000002607703209 5.49046802520751953 0.372952699661254883 0.705469369888305664 -0.100856348872184753 -0.701527595520019531
-3.0345757007598877 2.84330034255981445 0.208717823028564453 -0.067480035126209259 0.960558950901031494 0.269764602184295654
-5.49700021743774414 3.18734049797058105 2.38444900512695312 -0.521404027938842773 -0.566638827323913574 -0.638011157512664795
-2.12931966781616211 2.23406100273132324 2.6291046142578125 0.394836604595184326 -0.796281814575195312 -0.458300590515136719
-3.41173911094665527 1.44863414764404297 0.00300047686323523521 0.152241155505180359 -0.184215068817138672 -0.971023917198181152
-2.03092336654663086 1.22994315624237061 2.86459589004516602 0.29301750659942627 0.588138461112976074 -0.753812909126281738
-2.48768234252929688 4.01765251159667969 5.49700021743774414 -0.644819021224975586 0.761651217937469482 0.0639988481998443604
-3.8997349739074707 3.48044204711914062 5.49700021743774414 -0.0377499684691429138 -0.196932852268218994 0.979689717292785645
-1.7547377347946167 1.75790154933929443 3.04234695434570312 -0.103654354810714722 -0.160243883728981018 -0.981619954109191895
-0.120687723159790039 1.99683713912963867 5.49700021743774414 -0.198185592889785767 0.230036213994026184 0.952788412570953369
-1.96909189224243164 2.31256794929504395 2.56661438941955566 0.188066795468330383 -0.909602820873260498 -0.370477616786956787
-1.429054856300354 2.01196932792663574 2.79148674011230469 -0.555539608001708984 -0.508988142013549805 -0.657500505447387695
-1.74374032020568848 2.20404767990112305 2.78186368942260742 -0.116006307303905487 -0.744401514530181885 -0.657578110694885254
-2.42734479904174805 1.38040149211883545 5.49700021743774414 -0.683906137943267822 -0.432917863130569458 0.587243199348449707
-5.49700021743774414 5.19274616241455078 0.309071779251098633 -0.352402836084365845 -0.878037869930267334 0.32382357120513916
-0.00300000002607703209 5.48334360122680664 2.59421300888061523 0.742430984973907471 -0.401686906814575195 0.536137938499450684
-0.562896251678466797 4.31061840057373047 5.49700021743774414 -0.175489231944084167 -0.326241254806518555 0.928854227066040039
-1.41922760009765625 2.15051436424255371 2.60803604125976562 -0.574512243270874023 -0.706829190254211426 -0.412708282470703125
-5.49700021743774414 5.49153709411621094 4.79595661163330078 -0.713768422603607178 -0.00108709384221583605 0.700380921363830566
-1.80865764617919922 1.78758013248443604 3.04270195960998535 -0.0173716116696596146 -0.187422275543212891 -0.982125818729400635
-1.867340087890625 1.89253342151641846 3.01484489440917969 0.0490090325474739075 -0.303125232458114624 -0.951689720153808594
-1.91557979583740234 1.66977775096893311 3.05089640617370605 0.0705386847257614136 -0.140022754669189453 -0.987632513046264648
-5.00779342651367188 5.21576881408691406 5.49700021743774414 0.412242919206619263 -0.823702991008758545 0.38931882381439209
-4.49648571014404297 -0.233323529362678528 0.834757208824157715 0.303111046552658081 -0.865291595458984375 0.39924195408821106
-0.00300000002607703209 4.26062488555908203 0.387994289398193359 0.806332707405090332 0.479094713926315308 0.346836954355239868
-0.994110822677612305 4.75354242324829102 5.49700021743774414 0.404875189065933228 -0.0812422707676887512 0.910755574703216553
-1.15449249744415283 1.12513089179992676 0.719517171382904053 -0.189618900418281555 0.809983313083648682 0.554951965808868408
-2.17952132225036621 1.17813599109649658 2.71800637245178223 0.493824005126953125 0.65115201473236084 -0.576314926147460938
-0.183234453201293945 5.49700021743774414 5.17003297805786133 -0.416817992925643921 0.567692279815673828 -0.709921300411224365
-1.82057666778564453 5.49700021743774414 5.189056396484375 0.0602547377347946167 0.977588653564453125 -0.201716974377632141
-1.87460815906524658 1.68157482147216797 3.05409336090087891 0.0959985554218292236 -0.0294270869344472885 -0.994946420192718506
-0.00300000002607703209 5.34781455993652344 1.40241777896881104 0.112533606588840485 -0.979421555995941162 0.167539998888969421
-2.15723752975463867 2.27932238578796387 2.40340662002563477 0.451857954263687134 -0.881350219249725342 -0.138008087873458862
-2.09113645553588867 4.53355121612548828 0.00299952318891882896 -0.435534447431564331 0.284245073795318604 -0.854116201400756836
-1.24787652492523193 1.6260145902633667 2.00845599174499512 -0.925111174583435059 0.128909632563591003 0.357143640518188477
-2.18492579460144043 1.483925461769104 2.93520832061767578 0.517574012279510498 0.220499813556671143 -0.82673877477645874
-2.08884215354919434 1.53010940551757812 2.99425125122070312 0.365616589784622192 0.169249936938285828 -0.91524803638458252
-2.96115708351135254 3.98739051818847656 3.15295648574829102 -0.695987820625305176 -0.53145676851272583 -0.482860952615737915
-0.00299976160749793053 0.342049121856689453 1.01385641098022461 0.432845711708068848 -0.698269069194793701 -0.5701446533203125
-0.00300000002607703209 1.79038608074188232 3.7440187931060791 0.579208791255950928 -0.560133635997772217 -0.592256307601928711
-0.448180198669433594 5.49699974060058594 3.09619474411010742 0.373981654644012451 0.892882585525512695 0.250796377658843994
-2.17562222480773926 1.77266025543212891 2.95877790451049805 0.458274006843566895 -0.166528522968292236 -0.873071193695068359
-2.42410111427307129 2.66174840927124023 1.18159580230712891 0.989432752132415771 -0.0737781226634979248 -0.124818086624145508
-0.731088161468505859 1.96096920967102051 0.00300047686323523521 -0.12509647011756897 -0.494770824909210205 -0.859972596168518066
-0.277802944183349609 -0.0419697761535644531 5.49700021743774414 0.419188439846038818 -0.44472050666809082 0.791520893573760986
-3.46919012069702148 3.23599052429199219 3.57716965675354004 0.576088011264801025 0.289013534784317017 0.764587283134460449
-2.8076941967010498 2.9136815071105957 2.53153014183044434 -0.611010134220123291 0.312949299812316895 0.72713780403137207
-1.89913594722747803 1.43259942531585693 1.70559084415435791 0.130014359951019287 0.55961453914642334 0.818491280078887939
-5.49700021743774414 4.96203994750976562 3.95020484924316406 -0.933863699436187744 0.291202127933502197 0.207605063915252686
-2.9023902416229248 5.49700021743774414 0.0375962257385253906 -0.70581740140914917 0.708280205726623535 0.0126858241856098175
-3.87161517143249512 0.683822512626647949 0.819294095039367676 0.702267229557037354 0.334174394607543945 0.628608167171478271
-5.49700021743774414 4.88208627700805664 4.98336315155029297 -0.423318922519683838 -0.902896583080291748 0.0746914967894554138
-1.22544920444488525 2.63571667671203613 5.49700021743774414 -0.845427036285400391 -0.491181731224060059 0.209746673703193665
-1.06008005142211914 2.31835556030273438 1.06257164478302002 -0.827285587787628174 -0.00167923606932163239 -0.56177908182144165
-0.456586122512817383 5.49700021743774414 5.16734170913696289 -0.554104864597320557 0.795271456241607666 -0.245990008115768433
-0.00299952318891882896 1.67688083648681641 5.29919767379760742 0.545563340187072754 -0.827746570110321045 0.131134450435638428
-4.21493816375732422 4.21098852157592773 2.49399137496948242 -0.359942585229873657 -0.556212186813354492 -0.749045610427856445
-0.0588381290435791016 0.795380353927612305 5.49700021743774414 -0.848965823650360107 -0.346093833446502686 0.399344533681869507
-1.65512549877166748 2.49592757225036621 0.0274333357810974121 -0.994052708148956299 -0.107206910848617554 0.0191284883767366409
-0.103281736373901367 3.10541558265686035 5.49700021743774414 -0.0594741441309452057 0.832234442234039307 0.551224708557128906
-0.00300023844465613365 2.66373586654663086 0.117518424987792969 0.999156653881072998 -0.015294121578335762 0.0381059534847736359
-1.67282235622406006 2.43313455581665039 1.65299630165100098 0.720424950122833252 -0.311481773853302002 -0.619650661945343018
-2.68514347076416016 2.95169782638549805 2.14016604423522949 -0.70889747142791748 0.53106844425201416 -0.464145153760910034
-1.22715663909912109 5.17158031463623047 5.49700021743774414 -0.269137799739837646 0.346812903881072998 0.898490786552429199
-2.98598384857177734 4.06742238998413086 2.03952646255493164 -0.743531405925750732 0.41682007908821106 -0.522897779941558838
-2.71733760833740234 5.49700021743774414 4.76019001007080078 -0.525181293487548828 0.327433794736862183 0.785475492477416992
-3.81612896919250488 4.8681025505065918 5.49700021743774414 -0.425230354070663452 -0.598920941352844238 0.678581476211547852
-5.49700021743774414 0.812451004981994629 0.631932735443115234 -0.845745265483856201 -0.490348339080810547 -0.210412740707397461
-2.0141749382019043 2.29506492614746094 2.58724260330200195 0.267713069915771484 -0.890372037887573242 -0.368194907903671265
-2.23570704460144043 5.44373416900634766 0.00300000002607703209 0.272347748279571533 0.799702048301696777 -0.535073280334472656
-3.1211702823638916 4.50321435928344727 1.2511214017868042 -0.742828547954559326 -0.445551156997680664 0.499689817428588867
-1.69807076454162598 5.39787483215332031 0.00300000002607703209 -0.810458183288574219 -0.34572988748550415 -0.472893714904785156
-1.25502407550811768 2.00076889991760254 2.49455547332763672 -0.0559994354844093323 -0.682064533233642578 -0.729144752025604248
-0.684867143630981445 -0.359125614166259766 5.49700021743774414 0.306760787963867188 -0.534104824066162109 0.787800908088684082
-1.22788798809051514 0.879182398319244385 1.25606107711791992 -0.745484471321105957 0.121199019253253937 0.655411064624786377
-1.46759247779846191 5.20158052444458008 5.49700021743774414 0.579601824283599854 -0.3677329421043396 0.727209866046905518
-0.00300000002607703209 3.59244823455810547 4.80063343048095703 0.79232180118560791 0.525561988353729248 -0.309856057167053223
-2.41208982467651367 1.86591470241546631 2.69861793518066406 0.799115538597106934 -0.262832313776016235 -0.540678799152374268
-5.49699926376342773 -0.930452346801757812 2.0860142707824707 -0.931854367256164551 -0.357446074485778809 0.0622879490256309509
-3.2491307258605957 -0.329778909683227539 5.49700021743774414 -0.901930451393127441 0.0139901330694556236 0.431654691696166992
-2.64847970008850098 5.49700021743774414 1.4754786491394043 0.264544218778610229 0.838568210601806641 -0.476255983114242554
-2.23241138458251953 2.23340702056884766 2.41918635368347168 0.57433021068572998 -0.807389259338378906 -0.135157078504562378
-5.49700021743774414 5.1923675537109375 4.79634189605712891 -0.626597940921783447 0.729678511619567871 -0.273759603500366211
-4.40214776992797852 0.542414963245391846 0.757004022598266602 -0.0659047365188598633 0.978327929973602295 0.196293160319328308
-1.59828853607177734 5.49700069427490234 5.04144668579101562 0.238342449069023132 0.750570774078369141 0.616308629512786865
-2.42365026473999023 1.87032139301300049 2.67544984817504883 0.814134478569030762 -0.297290503978729248 -0.498802036046981812
-0.00300000002607703209 1.23158538341522217 5.36823272705078125 0.537640392780303955 0.65801006555557251 -0.527224361896514893
-0.793895959854125977 5.49700021743774414 4.76337528228759766 -0.296795576810836792 0.668739736080169678 -0.68168872594833374
-2.89822196960449219 5.49700021743774414 1.25326633453369141 -0.462347149848937988 0.772904753684997559 0.434572607278823853
-0.13490748405456543 5.49700021743774414 2.77690815925598145 -0.114504449069499969 0.632238566875457764 -0.766265690326690674
-1.06359827518463135 2.48180961608886719 0.00299952318891882896 -0.27689051628112793 -0.300663411617279053 -0.912651717662811279
-2.73575925827026367 5.49700021743774414 2.15765762329101562 0.552674651145935059 0.805234670639038086 -0.214820742607116699
-2.53390169143676758 2.29380512237548828 1.61066019535064697 0.243323057889938354 -0.455885857343673706 -0.856132030487060547
-1.62183356285095215 1.24540281295776367 2.86359286308288574 -0.281500875949859619 0.572985470294952393 -0.769704461097717285
-2.82622456550598145 5.24196052551269531 5.49700021743774414 0.14905276894569397 -0.541184902191162109 0.827588140964508057
-1.28458797931671143 1.79458487033843994 1.97081673145294189 -0.827924489974975586 -0.320522695779800415 0.460224062204360962
-4.580474853515625 -0.0434893295168876648 0.758512794971466064 -0.0455950647592544556 -0.99841463565826416 0.0330054573714733124
-2.88347029685974121 3.73695611953735352 1.2889629602432251 -0.814398586750030518 -0.578989148139953613 0.0390706062316894531
-3.46637344360351562 2.77123403549194336 3.30299258232116699 0.21482008695602417 -0.744144976139068604 -0.632534921169281006
-0.00300000002607703209 4.77266168594360352 5.47872543334960938 0.168298110365867615 0.0988823845982551575 -0.98076397180557251
-0.37642216682434082 1.34075748920440674 5.49700021743774414 -0.126310557126998901 -0.379240572452545166 0.916636347770690918
-1.35053360462188721 1.5489809513092041 1.65299606323242188 -0.678093910217285156 -0.459409564733505249 -0.573699891567230225
-3.56285238265991211 -0.308315575122833252 0.806087195873260498 0.967830121517181396 0.237813502550125122 -0.0821559950709342957
-1.52342939376831055 1.35649406909942627 2.89049124717712402 -0.422907710075378418 0.430976212024688721 -0.79712522029876709
-2.20356369018554688 1.70240819454193115 1.76551592350006104 0.557923197746276855 -0.221358627080917358 0.799826264381408691
-1.67046225070953369 1.31115531921386719 2.92953777313232422 -0.324316501617431641 0.477568387985229492 -0.816545963287353516
-3.0841829776763916 4.38398075103759766 2.9954533576965332 -0.420799285173416138 -0.849675953388214111 0.317771464586257935
-2.73963785171508789 5.49700021743774414 1.54194366931915283 -0.436368227005004883 0.6442413330078125 0.628120899200439453
-2.72611284255981445 3.22969460487365723 2.50432157516479492 -0.882267653942108154 -0.447372794151306152 0.146497055888175964
-1.96778583526611328 1.97597837448120117 2.96686887741088867 0.206484764814376831 -0.434803605079650879 -0.876532912254333496
-5.49700021743774414 2.17169356346130371 4.94261932373046875 -0.838244140148162842 -0.540831983089447021 -0.0696245506405830383
-2.67445516586303711 5.49700021743774414 5.11269855499267578 -0.215082079172134399 0.950508475303649902 -0.224217087030410767
-0.117078065872192383 3.31177759170532227 0.00300000002607703209 -0.18952670693397522 0.435243368148803711 -0.880137979984283447
-2.4886171817779541 1.9124530553817749 2.33631229400634766 0.926323890686035156 -0.374190539121627808 -0.0436526387929916382
-0.00300000002607703209 5.48107624053955078 4.63657379150390625 0.932582497596740723 -0.0473590977489948273 0.357836514711380005
-0.95131981372833252 4.50806427001953125 0.00300000002607703209 0.713741540908813477 0.350730329751968384 -0.60626828670501709
-3.52450466156005859 3.81425881385803223 4.24021100997924805 -0.337186753749847412 -0.823684632778167725 0.455904304981231689
-1.65849959850311279 1.26687180995941162 2.89540195465087891 -0.219240069389343262 0.558518052101135254 -0.79999464750289917
-0.541870832443237305 5.49700021743774414 1.93598747253417969 -0.504918456077575684 0.50485837459564209 -0.700125277042388916
-3.30872654914855957 3.56663179397583008 3.98939347267150879 -0.33026123046875 0.0312050692737102509 0.943373620510101318
-4.30127334594726562 4.20736408233642578 5.49700021743774414 0.0893383771181106567 -0.968351125717163086 0.233055189251899719
-3.93867111206054688 1.30095219612121582 5.49700021743774414 -0.170868456363677979 -0.82772064208984375 0.534493207931518555
-0.584714174270629883 5.49700021743774414 5.029449462890625 -0.551782011985778809 0.746557235717773438 -0.371737629175186157
-2.29263544082641602 1.98514175415039062 2.77781414985656738 0.633417963981628418 -0.420770436525344849 -0.649410426616668701
-0.672949314117431641 1.16356873512268066 0.00300000002607703209 -0.0180960148572921753 0.118964850902557373 -0.992733597755432129
-2.3556663990020752 2.02255463600158691 2.65677189826965332 0.716817736625671387 -0.484784841537475586 -0.501154661178588867
-1.67182683944702148 3.85951852798461914 0.00300047686323523521 -0.356099992990493774 0.0357218682765960693 -0.933764815330505371
-5.49700021743774414 3.37876796722412109 1.77282500267028809 -0.443062812089920044 0.466349005699157715 -0.765646100044250488
-2.35520124435424805 1.23004484176635742 2.52264642715454102 0.316061496734619141 0.0387319251894950867 -0.947947859764099121
-1.17956042289733887 1.87646627426147461 1.65299630165100098 -0.685417473316192627 0.292136728763580322 -0.666977524757385254
-0.00300000002607703209 0.954533576965332031 3.4184415340423584 0.843442678451538086 -0.331177771091461182 0.422997117042541504
-5.49700021743774414 -0.430878400802612305 3.32041120529174805 -0.566739797592163086 -0.82388836145401001 0.00373456068336963654
-0.119927406311035156 5.49700021743774414 0.921137690544128418 -0.643709719181060791 0.756484448909759521 -0.115624777972698212
-0.0123298168182373047 0.741659164428710938 5.49700021743774414 -0.259702831506729126 0.157433748245239258 0.952769160270690918
-3.91945195198059082 2.56880426406860352 2.94905662536621094 -0.902521193027496338 0.381897211074829102 0.199023663997650146
-0.466979503631591797 1.41923177242279053 0.00300000002607703209 -0.473509103059768677 -0.673885345458984375 -0.567157506942749023
-0.7140960693359375 3.0473029613494873 5.49700021743774414 0.326615422964096069 0.387530982494354248 0.862057089805603027
-2.84728074073791504 1.24366915225982666 1.47480535507202148 0.578185796737670898 0.0498618558049201965 -0.814380168914794922
-2.37928009033203125 1.96645998954772949 2.67648601531982422 0.742723941802978516 -0.453864872455596924 -0.492308616638183594
-0.00300000002607703209 3.23362278938293457 2.90572810173034668 0.798261880874633789 0.416019260883331299 0.435552448034286499
-5.49700021743774414 1.48566770553588867 2.34626936912536621 -0.998041152954101562 -0.0519569516181945801 -0.0348528176546096802
-1.02520847320556641 5.49700021743774414 5.29808998107910156 -0.579082310199737549 0.792880475521087646 -0.189747780561447144
-5.49700021743774414 3.99017739295959473 4.49894952774047852 -0.926955044269561768 -0.36024901270866394 -0.10476183146238327
-5.49700021743774414 2.2492823600769043 4.68317317962646484 -0.921010196208953857 0.364093691110610962 -0.138477236032485962
-2.38774394989013672 5.49700021743774414 0.912374973297119141 0.148876816034317017 0.953244447708129883 -0.262984216213226318
-2.83297371864318848 5.49700021743774414 5.14811277389526367 0.195192605257034302 0.645199239253997803 -0.738659441471099854
-4.62823772430419922 5.49700021743774414 4.30258989334106445 -0.0846299529075622559 0.974521994590759277 -0.207713037729263306
-2.42582297325134277 1.61742234230041504 2.73003840446472168 0.81824040412902832 0.0288265533745288849 -0.574153006076812744
-4.27619314193725586 5.18708658218383789 5.49700021743774414 -0.980660021305084229 -0.152036383748054504 0.123251199722290039
-0.00300000002607703209 -0.922707080841064453 2.57166695594787598 0.541165411472320557 -0.671052932739257812 0.506781995296478271
-3.91638660430908203 2.56975460052490234 0.0481051206588745117 -0.929473161697387695 -0.163711726665496826 -0.330572336912155151
-3.19207954406738281 5.49700021743774414 5.24686527252197266 -0.927096009254455566 0.372874617576599121 -0.0381776578724384308
-2.23425698280334473 5.22922945022583008 0.00300000002607703209 -0.532163500785827637 0.511182844638824463 -0.674903035163879395
-0.776626825332641602 2.93882274627685547 5.49699974060058594 -0.1583690345287323 0.68146204948425293 0.714512944221496582
-4.26590442657470703 3.50733232498168945 5.49700021743774414 -0.561853408813476562 0.425509005784988403 0.70941007137298584
-1.79454970359802246 2.00319838523864746 1.75363504886627197 -0.188850343227386475 -0.541412234306335449 0.819273114204406738
-1.29534733295440674 1.68579709529876709 2.78085494041442871 -0.850386977195739746 0.0520588681101799011 -0.523576140403747559
-0.00300000002607703209 1.23859655857086182 0.0780413150787353516 0.806207954883575439 0.538573801517486572 0.244881570339202881
-2.87974357604980469 5.15530490875244141 0.00300000002607703209 0.0601856708526611328 0.745997488498687744 -0.663223505020141602
-5.16476154327392578 5.49700021743774414 4.64438343048095703 -0.18312564492225647 0.327507913112640381 -0.926932334899902344
-1.45672082901000977 1.10684478282928467 2.48498225212097168 -0.691835522651672363 0.709549665451049805 -0.133802324533462524
-1.42660081386566162 5.27979946136474609 5.49700021743774414 0.60599285364151001 -0.0807011052966117859 0.791365921497344971
-1.57893967628479004 1.13271617889404297 2.71254467964172363 -0.403164446353912354 0.570402860641479492 -0.715610921382904053
-1.2818453311920166 1.27320444583892822 2.44779181480407715 -0.792974412441253662 0.592535138130187988 -0.141752451658248901
-0.479992389678955078 5.49700021743774414 4.72954702377319336 0.300514459609985352 0.819355249404907227 0.488208889961242676
-2.73305320739746094 2.93683576583862305 2.93334627151489258 -0.539836108684539795 0.787959814071655273 0.296135485172271729
-1.0706794261932373 5.49700021743774414 1.33004045486450195 -0.475392907857894897 0.785945713520050049 0.395336508750915527
-5.49700021743774414 2.70392465591430664 4.19441127777099609 -0.653947234153747559 -0.750391244888305664 0.0962597429752349854
-0.00300000002607703209 0.0946030616760253906 1.72250211238861084 0.919352471828460693 -0.391072481870651245 0.0430509038269519806
-0.505721807479858398 5.49700117111206055 5.01177692413330078 -0.0926018506288528442 0.995571911334991455 -0.0161712635308504105
-1.24319255352020264 1.35928928852081299 2.51104211807250977 -0.85285031795501709 0.481186747550964355 -0.202745020389556885
-4.55931329727172852 -0.110890813171863556 0.783101022243499756 -0.898875653743743896 -0.387126922607421875 0.205317437648773193
-2.34026694297790527 1.93029963970184326 2.76198267936706543 0.685927391052246094 -0.378283143043518066 -0.621615171432495117
-2.23584485054016113 1.99518275260925293 2.825164794921875 0.55389869213104248 -0.485732853412628174 -0.676209926605224609
-0.159503459930419922 5.49699974060058594 3.82311463356018066 -0.0428287163376808167 0.983432412147521973 -0.176143020391464233
-2.26966166496276855 1.38710236549377441 2.82925701141357422 0.595231354236602783 0.344242572784423828 -0.726083040237426758
-4.39901590347290039 3.0332334041595459 0.055684208869934082 0.671301901340484619 0.737030506134033203 0.0783568024635314941
-5.49700021743774414 5.41814899444580078 1.09405624866485596 -0.464223593473434448 -0.0925835445523262024 -0.880865931510925293
-0.00300000002607703209 4.19822549819946289 2.29485130310058594 0.263092547655105591 0.859300732612609863 0.438616663217544556
-3.85113024711608887 5.47027492523193359 0.00299976160749793053 -0.736079752445220947 -0.0962074995040893555 -0.670022904872894287
-3.62072038650512695 3.30896472930908203 3.40345168113708496 -0.30734524130821228 0.112197667360305786 0.944960653781890869
-0.00299976160749793053 4.25301790237426758 0.967547893524169922 0.929924726486206055 0.281308621168136597 -0.236866280436515808
-1.61431288719177246 2.02962732315063477 2.90219712257385254 -0.279596149921417236 -0.508472740650177002 -0.814420938491821289
-1.55758261680603027 2.17611098289489746 1.98921465873718262 -0.368192374706268311 -0.753627240657806396 0.544500172138214111
-1.74342620372772217 1.0779116153717041 2.71062135696411133 -0.273985505104064941 0.784602940082550049 -0.556174576282501221
-3.53498148918151855 4.42191696166992188 2.15242767333984375 -0.491311520338058472 -0.783409655094146729 0.380634129047393799
-3.51639819145202637 0.451846659183502197 0.828152596950531006 0.703874707221984863 0.655486881732940674 0.273673772811889648
-1.54785943031311035 2.46391749382019043 0.74900442361831665 0.290680676698684692 -0.73921048641204834 -0.607513546943664551
-0.0730092525482177734 5.49700021743774414 2.39309573173522949 -0.0593310818076133728 0.693031668663024902 0.718461513519287109
-0.00300000002607703209 0.714939117431640625 0.907431602478027344 0.746030032634735107 0.410275816917419434 0.524512112140655518
-0.274995803833007812 -0.479383707046508789 5.49700021743774414 -0.705243349075317383 0.258414506912231445 0.660192251205444336
-0.00300000002607703209 4.67529964447021484 2.32800483703613281 0.891826391220092773 0.367332488298416138 -0.264031499624252319
-0.00300023844465613365 -0.282714366912841797 1.72871935367584229 0.663594186305999756 -0.747704625129699707 0.0240942146629095078
-1.20507502555847168 1.79232370853424072 5.49700021743774414 0.224760770797729492 0.0299434810876846313 0.973953843116760254
-0.799422502517700195 4.55368614196777344 5.49700021743774414 0.470752984285354614 0.100877918303012848 0.876478970050811768
-0.453579425811767578 5.49700021743774414 3.2382509708404541 -0.644603729248046875 0.30125725269317627 -0.702659308910369873
-3.89083385467529297 3.96889877319335938 3.52494144439697266 -0.385424047708511353 -0.175049886107444763 0.905983328819274902
-1.69915091991424561 3.01027560234069824 0.00300000002607703209 -0.843947768211364746 -0.243317186832427979 -0.478067934513092041
-2.2397923469543457 2.17127346992492676 2.6138923168182373 0.323249459266662598 -0.680926203727722168 0.657152414321899414
-0.207465887069702148 1.5995633602142334 5.49700021743774414 -0.776002228260040283 -0.460891634225845337 0.430580377578735352
-2.64939451217651367 2.98238277435302734 0.88332599401473999 -0.792008638381958008 0.36397850513458252 0.490144848823547363
-1.46786510944366455 1.34709107875823975 1.87028014659881592 -0.605348825454711914 0.602708578109741211 0.519899129867553711
-5.49700021743774414 3.67171335220336914 5.05224895477294922 -0.90262901782989502 0.0658141598105430603 0.4253578782081604
-2.42413926124572754 2.66162014007568359 0.453349500894546509 0.920860230922698975 0.321053653955459595 0.221226155757904053
-3.0769350528717041 4.36061525344848633 0.0290338993072509766 -0.761779308319091797 0.647739648818969727 0.0112064164131879807
-2.62611246109008789 4.25540781021118164 5.49700021743774414 0.499645352363586426 0.389999806880950928 0.773469090461730957
-2.41591763496398926 1.4276878833770752 2.66674947738647461 0.815101683139801025 0.300520420074462891 -0.49527442455291748
-1.23598921298980713 1.74381530284881592 2.03706479072570801 -0.935716986656188965 -0.177708864212036133 0.304718434810638428
-4.04300451278686523 3.16382575035095215 3.44366931915283203 -0.79773104190826416 0.213821187615394592 0.56383126974105835
-0.0292856693267822266 5.49700021743774414 2.59330940246582031 -0.0326776690781116486 0.946700572967529297 -0.320453107357025146
-5.49700021743774414 3.95087003707885742 3.46170520782470703 -0.986636221408843994 -0.0839468389749526978 0.139649257063865662
-5.49700021743774414 4.57207965850830078 1.76612520217895508 -0.113655716180801392 -0.301950037479400635 -0.946524441242218018
-2.01681065559387207 2.21361565589904785 2.74423384666442871 0.259924829006195068 -0.779641628265380859 -0.569735169410705566
-1.47108662128448486 2.13367795944213867 2.70554733276367188 -0.423134028911590576 -0.764906406402587891 -0.485670566558837891
-0.00300000002607703209 3.41376280784606934 4.15838432312011719 0.42919689416885376 -0.145366460084915161 -0.891436278820037842
-2.62514615058898926 2.94491267204284668 0.00300000002607703209 0.0691229775547981262 -0.0278588607907295227 -0.99721914529800415
-2.00313162803649902 2.30080723762512207 2.13720393180847168 0.0890731066465377808 -0.969811677932739258 0.227005064487457275
-1.67030823230743408 1.20238721370697021 2.84438824653625488 -0.229460567235946655 0.638765335083007812 -0.734388589859008789
-3.42554306983947754 -0.0668785572052001953 0.779588043689727783 0.886377096176147461 0.344871580600738525 0.30886763334274292
