ply
format ascii 1.0
element vertex 375
property float x
property float y
property float z
property float nx
property float ny
property float nz
end_header
-0.0263624191284179688 5.49970006942749023 3.40404725074768066 0.0719336420297622681 0.949809670448303223 -0.304445534944534302
-0.0267450809478759766 5.49970006942749023 3.40523242950439453 0.269039630889892578 0.919415295124053955 0.286867648363113403
-0.0268902778625488281 5.49970006942749023 3.40507364273071289 -0.183941826224327087 0.960651636123657227 -0.208119526505470276
-3.65005230903625488 3.05586767196655273 3.3002924919128418 -0.263993591070175171 -0.434138029813766479 -0.861296355724334717
-3.64998793601989746 3.05603408813476562 3.3002924919128418 -0.0911841168999671936 0.0510914549231529236 -0.994522511959075928
-3.17064046859741211 5.49970006942749023 2.88963150978088379 -0.0240858215838670731 0.993666887283325195 -0.109753511846065521
-0.000300000014249235392 -0.442782163619995117 5.18029308319091797 0.99523627758026123 -0.0969547480344772339 -0.0102165872231125832
-3.37521553039550781 5.49970006942749023 4.29889631271362305 0.131486549973487854 0.968567013740539551 -0.211161181330680847
-5.07581329345703125 0.242570400238037109 0.000300000014249235392 -0.140459761023521423 0.136117398738861084 -0.980684936046600342
-1.74963271617889404 3.09309768676757812 0.000300000014249235392 0.028154272586107254 0.032669413834810257 -0.999069511890411377
-2.22489786148071289 5.49970006942749023 2.8300623893737793 -0.205391556024551392 0.892462193965911865 -0.401653409004211426
-2.22481060028076172 5.49970006942749023 2.83013224601745605 0.0598487667739391327 0.975548326969146729 -0.211479365825653076
-2.3869783878326416 5.18351650238037109 0.000300000014249235392 -0.0113654192537069321 0.0764808803796768188 -0.99700617790222168
-4.64541912078857422 1.54417240619659424 0.000300000014249235392 0.109941013157367706 0.0557711981236934662 -0.99237215518951416
-4.40504932403564453 0.150416523218154907 0.74562525749206543 0.218701958656311035 0.881637215614318848 -0.418192654848098755
-4.40522623062133789 0.149882078170776367 0.74562525749206543 -0.0637594535946846008 0.310178458690643311 -0.948537826538085938
-4.40598726272583008 0.149597585201263428 0.74562525749206543 -0.927445173263549805 0.00653154216706752777 -0.37390214204788208
-4.4052891731262207 0.149565398693084717 0.74562525749206543 -0.150700300931930542 -0.0885513350367546082 -0.984605491161346436
-4.40412521362304688 0.150473475456237793 0.74562525749206543 0.582521319389343262 0.0486101694405078888 -0.811360538005828857
-4.40429973602294922 0.150521844625473022 0.74562525749206543 0.132584482431411743 0.213925659656524658 -0.967810392379760742
-4.40468072891235352 0.151384174823760986 0.74562525749206543 -0.362910151481628418 0.898376822471618652 -0.247417211532592773
-4.40415811538696289 0.150330841541290283 0.74562525749206543 0.263821035623550415 0.115410357713699341 -0.957642316818237305
-0.000300000014249235392 1.91624140739440918 3.85251712799072266 0.996095657348632812 0.00727162696421146393 -0.0879796743392944336
-0.000300000014249235392 -0.0358147621154785156 4.02726316452026367 0.991709291934967041 -0.118607759475708008 -0.0494444631040096283
-3.6250770092010498 2.6629488468170166 3.02816963195800781 0.146253496408462524 0.988360822200775146 0.0418663434684276581
-0.000300000014249235392 1.34833216667175293 4.73476982116699219 0.998704314231872559 -0.0258455928415060043 -0.0438365451991558075
-3.01961040496826172 3.12778472900390625 3.3002924919128418 0.451365470886230469 0.193432971835136414 -0.871121704578399658
-3.01971769332885742 3.12766623497009277 3.3002924919128418 0.156668901443481445 -0.168244153261184692 -0.973215699195861816
-2.62160944938659668 5.49970006942749023 1.93434488773345947 0.00202529039233922958 0.991361916065216064 -0.131138965487480164
-0.000300000014249235392 1.45749902725219727 1.35539627075195312 0.991928815841674805 -0.0501315779983997345 -0.116464458405971527
-5.04341888427734375 2.05461597442626953 5.49970006942749023 -0.183563098311424255 0.655468285083770752 0.732574820518493652
-5.04338693618774414 2.05431032180786133 5.49970006942749023 -0.14032803475856781 -0.122292466461658478 0.982523560523986816
-5.49970006942749023 1.14854788780212402 1.63107573986053467 -0.993187010288238525 -0.0292474348098039627 -0.112800449132919312
-3.04930543899536133 3.82564997673034668 3.3002922534942627 -0.0498052164912223816 0.114160716533660889 -0.992213010787963867
-3.19978523254394531 2.97766709327697754 5.49970006942749023 0.0771942064166069031 -0.0523242950439453125 0.99564206600189209
-0.000300000014249235392 2.37364029884338379 4.60348749160766602 0.998169541358947754 -0.0410464629530906677 -0.0444151237607002258
-3.48956513404846191 2.98975253105163574 3.3002924919128418 -0.00395255628973245621 0.0206986404955387115 -0.999777913093566895
-5.49970006942749023 3.55133581161499023 3.61629915237426758 -0.969580411911010742 0.21926426887512207 0.108797729015350342
-3.82444906234741211 5.49970006942749023 5.45950651168823242 0.367370694875717163 0.714024901390075684 0.595992505550384521
-3.82461881637573242 5.49970006942749023 5.45925617218017578 -0.0520591810345649719 0.998643875122070312 -0.000257712526945397258
-0.695021629333496094 5.49970006942749023 4.35531759262084961 -0.0372752025723457336 0.980397641658782959 -0.193470761179924011
-5.49970006942749023 2.99576640129089355 2.20688891410827637 -0.990586280822753906 0.0384162813425064087 -0.131388306617736816
-3.12045431137084961 3.60213494300842285 3.3002922534942627 0.115110956132411957 0.190868884325027466 -0.97484278678894043
-5.49970006942749023 2.53602123260498047 1.17778527736663818 -0.989781379699707031 -0.01454160176217556 -0.141849502921104431
-4.37909889221191406 5.49970006942749023 4.30598878860473633 -0.19162943959236145 0.98057401180267334 0.0418646335601806641
-5.49970006942749023 2.06934261322021484 0.267395257949829102 -0.986040115356445312 -0.048243056982755661 -0.159365758299827576
-0.000299761595670133829 3.1226494312286377 2.59914231300354004 0.993149816989898682 0.0910349562764167786 -0.0732533186674118042
-3.0419161319732666 2.84385061264038086 2.82330083847045898 0.144520163536071777 0.825377047061920166 -0.545771598815917969
-3.44242310523986816 3.10800862312316895 3.3002924919128418 -0.670508086681365967 0.121647082269191742 -0.731861233711242676
-3.44096779823303223 3.10796737670898438 3.3002924919128418 -0.878127515316009521 0.234880909323692322 -0.416801005601882935
-3.44038820266723633 3.10791182518005371 3.3002924919128418 -0.16239464282989502 0.349333912134170532 -0.922818422317504883
-0.000300000014249235392 -0.554867744445800781 4.37530231475830078 0.990711569786071777 -0.128858014941215515 -0.0434290915727615356
-0.000300000014249235392 2.71515369415283203 4.51612091064453125 0.998392343521118164 -0.0253258533775806427 -0.0507074929773807526
-3.34345841407775879 2.75030946731567383 2.92136168479919434 -0.16150607168674469 0.784395039081573486 -0.598865807056427002
-3.34345149993896484 2.75031161308288574 2.92157769203186035 -0.17782166600227356 0.983596324920654297 -0.0302932914346456528
-4.46619129180908203 4.96650934219360352 0.000300000014249235392 -0.226923704147338867 -0.764589965343475342 -0.603247582912445068
-4.46607208251953125 4.96687650680541992 0.000300000014249235392 0.0226009469479322433 -0.0430874302983283997 -0.998815536499023438
-3.79771232604980469 3.51256299018859863 5.49970006942749023 0.1397295743227005 0.162082523107528687 0.97683405876159668
-3.7976527214050293 3.51253962516784668 5.49970006942749023 0.322683632373809814 0.0832385271787643433 0.942839622497558594
-3.79779958724975586 3.51264119148254395 5.49970006942749023 0.148496836423873901 0.217103198170661926 0.96478736400604248
-4.41253042221069336 0.27398759126663208 0.74562525749206543 0.237850844860076904 -0.851393222808837891 -0.467500358819961548
-4.41269159317016602 0.274510294198989868 0.74562525749206543 -0.0278201885521411896 -0.0788373127579689026 -0.996499240398406982
-0.294656515121459961 5.49970006942749023 3.10741424560546875 0.146100357174873352 0.823902130126953125 -0.547576367855072021
-0.294300079345703125 5.49970006942749023 3.10796833038330078 0.714662849903106689 0.673634529113769531 0.18834395706653595
-0.294498682022094727 5.49970006942749023 3.10779786109924316 0.35819360613822937 0.897006511688232422 -0.258991360664367676
-0.000300000014249235392 1.71106767654418945 2.8741154670715332 0.994388222694396973 -0.0491820238530635834 -0.0936647877097129822
-3.87757682800292969 2.65072798728942871 3.3002924919128418 -0.532390594482421875 0.394888937473297119 -0.748747587203979492
-3.87760043144226074 2.65059304237365723 3.3002924919128418 -0.618451356887817383 0.0606739483773708344 -0.783477187156677246
-3.87714195251464844 2.65016007423400879 3.3002922534942627 -0.494265466928482056 -0.496591091156005859 -0.71351170539855957
-3.87704801559448242 2.65028476715087891 3.3002924919128418 -0.3434886634349823 -0.253793686628341675 -0.904214680194854736
-3.0440971851348877 2.84317398071289062 2.51933479309082031 -0.213606804609298706 0.948388397693634033 -0.234374731779098511
-3.04404377937316895 2.84319067001342773 2.51932811737060547 -0.0388169586658477783 0.968032598495483398 -0.247802302241325378
-5.49970006942749023 1.97204935550689697 1.09353065490722656 -0.990993261337280273 0.00674981717020273209 -0.133740887045860291
-3.89416122436523438 1.67355453968048096 0.000300000014249235392 0.672481060028076172 -0.737860441207885742 -0.0577162764966487885
-3.89759922027587891 1.67724430561065674 0.000300000014249235392 0.167044594883918762 -0.428593814373016357 -0.887920796871185303
-3.89827561378479004 1.6785818338394165 0.000300000014249235392 -0.028317650780081749 0.401791274547576904 -0.915293216705322266
-3.89829206466674805 1.67838442325592041 0.000300000014249235392 -0.0835259929299354553 -0.213550299406051636 -0.973354816436767578
-1.43864011764526367 2.38579106330871582 1.65029633045196533 0.0377616211771965027 0.427460551261901855 -0.903244972229003906
-2.83015537261962891 3.22778177261352539 3.3002924919128418 -0.047489851713180542 0.0440426133573055267 -0.997900247573852539
-2.03685760498046875 3.02516674995422363 5.49970006942749023 0.418456286191940308 0.496555119752883911 0.760478317737579346
-2.03697013854980469 3.02495956420898438 5.49970006942749023 0.171882495284080505 -0.0377354882657527924 0.984394431114196777
-2.54639792442321777 5.49970006942749023 4.75424337387084961 0.0516372174024581909 0.997892439365386963 -0.0392964296042919159
-0.000300000014249235392 3.88780069351196289 2.31433868408203125 0.993015944957733154 0.0375993847846984863 -0.111828282475471497
-1.32691431045532227 5.49970006942749023 5.03481817245483398 0.194744005799293518 0.96085357666015625 0.197066366672515869
-4.38926839828491211 1.24563968181610107 0.000300000014249235392 0.508516609668731689 -0.532758712768554688 -0.676445901393890381
-4.38950824737548828 1.24586009979248047 0.000300000014249235392 -0.0478507503867149353 -0.0528611317276954651 -0.997454702854156494
-4.51295328140258789 -0.212294861674308777 0.779365241527557373 0.301466763019561768 -0.950573980808258057 0.0743428543210029602
-4.59897661209106445 0.0577929727733135223 0.758155584335327148 -0.705687761306762695 -0.695451200008392334 -0.135471150279045105
-4.59905529022216797 0.058893304318189621 0.758439779281616211 -0.982672631740570068 -0.179356485605239868 0.0467515438795089722
-5.44803237915039062 -0.844107627868652344 5.49970006942749023 -0.195139482617378235 -0.189581364393234253 0.962278306484222412
-4.48413658142089844 0.0924115553498268127 0.74562525749206543 -0.579044640064239502 -0.373937278985977173 -0.724484801292419434
-4.47639989852905273 0.0975584760308265686 0.74562525749206543 -0.314930051565170288 -0.0167898591607809067 -0.948966383934020996
-2.22536087036132812 5.49970006942749023 3.27162075042724609 -0.199369296431541443 0.978970468044281006 -0.0432283952832221985
-2.22517085075378418 5.49970006942749023 3.27155494689941406 0.384059429168701172 0.892848968505859375 -0.235199987888336182
-2.22590756416320801 5.49970006942749023 3.27265739440917969 0.465085387229919434 0.879592955112457275 0.100058682262897491
-2.2261502742767334 5.49970006942749023 3.27276229858398438 0.477300733327865601 0.782172739505767822 0.400486886501312256
-2.22632932662963867 5.49970006942749023 3.2725834846496582 0.0135204028338193893 0.996365845203399658 -0.0840966701507568359
-0.000300000014249235392 2.6902167797088623 2.8161165714263916 0.993196368217468262 0.0289103668183088303 -0.112805284559726715
-3.17789554595947266 3.60517358779907227 3.3002922534942627 0.439905792474746704 0.259389251470565796 -0.859767436981201172
-3.17832422256469727 3.60495591163635254 3.3002922534942627 0.0130500486120581627 0.0560814477503299713 -0.998340845108032227
-5.49970006942749023 0.0741608142852783203 3.04709267616271973 -0.993340671062469482 -0.0880986377596855164 -0.0742487832903862
-5.48460865020751953 1.75378167629241943 0.000300000014249235392 -0.192609995603561401 0.0505926758050918579 -0.979970216751098633
-0.000300000014249235392 3.47339606285095215 1.84781229496002197 0.992084980010986328 0.0452044382691383362 -0.117148175835609436
-0.000300000014249235392 0.689158439636230469 1.77541232109069824 0.991916775703430176 -0.0550681203603744507 -0.114317141473293304
-3.32950448989868164 1.2624046802520752 0.000300000014249235392 0.466433405876159668 0.1380319744348526 -0.873720228672027588
-3.32960224151611328 1.26228213310241699 0.000300000014249235392 0.19773903489112854 -0.238381490111351013 -0.95082777738571167
-3.33090448379516602 1.26263785362243652 0.000300000014249235392 -0.722746193408966064 -0.0389951728284358978 -0.690012514591217041
-3.33060598373413086 1.26254367828369141 0.000300000014249235392 -0.0495034530758857727 -0.347066134214401245 -0.936533212661743164
-3.27410650253295898 0.0145761966705322266 0.000300000014249235392 -0.153410643339157104 -0.0833595693111419678 -0.984640181064605713
-5.49970006942749023 3.20209264755249023 5.08477115631103516 -0.997037708759307861 0.0713782459497451782 -0.0286490451544523239
-1.5401839017868042 5.49970006942749023 4.26341772079467773 0.0462224781513214111 0.996613264083862305 -0.0680109262466430664
-4.71708965301513672 5.49970006942749023 4.96695375442504883 0.501328647136688232 0.736360430717468262 0.454359710216522217
-4.71737766265869141 5.49970006942749023 4.9668726921081543 -0.255511999130249023 0.913427472114562988 0.316802442073822021
-4.71731758117675781 5.49970006942749023 4.96659564971923828 -0.212083175778388977 0.977245450019836426 -0.00345284957438707352
-2.6927177906036377 5.49970006942749023 4.48469114303588867 -0.752155184745788574 0.651877403259277344 0.0965322032570838928
-2.69236493110656738 5.49970006942749023 4.48465633392333984 0.0219662413001060486 0.999227523803710938 0.0325842462480068207
-1.24602019786834717 5.31464004516601562 0.000300000014249235392 0.144003018736839294 0.979881942272186279 -0.138182088732719421
-1.24638724327087402 5.31267595291137695 0.000300000014249235392 -0.157845497131347656 0.470498263835906982 -0.868168175220489502
-5.49970006942749023 4.38994407653808594 5.33953237533569336 -0.997269988059997559 0.0736709386110305786 -0.00501743890345096588
-2.50112152099609375 5.49970006942749023 4.3829493522644043 -0.139896094799041748 0.832028448581695557 0.536803185939788818
-2.50105690956115723 5.49970006942749023 4.38276290893554688 0.0475066006183624268 0.998601198196411133 0.0232087578624486923
-5.49970006942749023 0.85991978645324707 3.52153682708740234 -0.807711362838745117 -0.586176633834838867 0.0632390454411506653
-0.000300000014249235392 0.836935758590698242 3.85155963897705078 0.995610713958740234 -0.0752399787306785583 -0.0556610599160194397
-0.000300000014249235392 0.0462269783020019531 3.95781993865966797 0.995346784591674805 -0.0738059207797050476 -0.0619471631944179535
-0.000300000014249235392 5.40469980239868164 4.52230262756347656 0.975450515747070312 -0.145402193069458008 0.165391936898231506
-0.637151479721069336 5.49970006942749023 4.41431522369384766 0.485115349292755127 0.849470853805541992 0.207514747977256775
-5.49970006942749023 2.48919367790222168 4.92111682891845703 -0.998851299285888672 0.0228511039167642593 -0.0421159304678440094
-5.49970006942749023 1.83786356449127197 3.76894259452819824 -0.989221870899200439 -0.140386626124382019 -0.0416126139461994171
-2.29227471351623535 5.49970006942749023 1.50593388080596924 0.113122694194316864 0.700031280517578125 -0.705095350742340088
-2.29227828979492188 5.49970006942749023 1.50625765323638916 0.147075936198234558 0.986579954624176025 0.0709127634763717651
-3.23959755897521973 -0.926633358001708984 0.000300000014249235392 0.704004526138305664 0.0757320448756217957 -0.706146180629730225
-3.23982071876525879 -0.926640748977661133 0.000300000014249235392 0.244072571396827698 0.080071866512298584 -0.966445565223693848
-3.15990209579467773 5.49970006942749023 4.10600614547729492 0.0178288985043764114 0.997726559638977051 -0.0649908483028411865
-3.31598258018493652 5.49970006942749023 4.25439357757568359 0.168221578001976013 0.983787000179290771 0.062166217714548111
-3.2920835018157959 3.47199201583862305 3.3002922534942627 -0.0780051052570343018 0.0609802864491939545 -0.995086193084716797
-0.262902021408081055 5.49970006942749023 1.57915866374969482 -0.16636812686920166 0.984075188636779785 0.0625910460948944092
-0.262662649154663086 5.49970006942749023 1.57915949821472168 0.151441857218742371 0.986391901969909668 0.0640022829174995422
-1.46492362022399902 4.77357006072998047 0.000300000014249235392 0.570896744728088379 0.384621471166610718 -0.725357294082641602
-1.46511304378509521 4.77358531951904297 0.000300000014249235392 0.133306831121444702 0.498159438371658325 -0.856776714324951172
-0.472517251968383789 3.85067176818847656 0.000300000014249235392 0.097166895866394043 -0.202741697430610657 -0.974399447441101074
-0.472284317016601562 3.8508915901184082 0.000300000014249235392 0.628445088863372803 -0.0758757367730140686 -0.774144470691680908
-0.47248530387878418 3.8509831428527832 0.000300000014249235392 0.137236058712005615 0.201009050011634827 -0.969928622245788574
-2.15019130706787109 5.49970006942749023 5.14667367935180664 -0.130035281181335449 0.991066575050354004 0.0296277943998575211
-4.70408344268798828 4.42063522338867188 0.000300000014249235392 -0.0630689337849617004 -0.572132587432861328 -0.817732572555541992
-3.89883947372436523 5.49970006942749023 5.32714939117431641 -0.12114744633436203 0.931933701038360596 -0.341793626546859741
-0.000300000014249235392 4.05670166015625 4.8101959228515625 0.996697783470153809 0.0705065280199050903 -0.0402776673436164856
-1.69931507110595703 5.49970006942749023 3.24585247039794922 0.399439781904220581 0.852974772453308105 0.335978925228118896
-1.69944441318511963 5.49970006942749023 3.24570226669311523 0.0368485674262046814 0.993707895278930664 -0.105767399072647095
-1.15360021591186523 2.92331552505493164 0.000300000014249235392 0.0441658124327659607 0.00114143372047692537 -0.999023556709289551
-5.49970006942749023 0.325935840606689453 4.78129291534423828 -0.99554753303527832 -0.0889901295304298401 -0.0310750827193260193
-5.49970006942749023 2.40007686614990234 4.78801059722900391 -0.998954951763153076 -0.0234220810234546661 -0.0392468497157096863
-3.53296303749084473 0.683560609817504883 0.000300000014249235392 -0.0895177498459815979 -0.700369000434875488 -0.708145380020141602
-3.53293228149414062 0.68384099006652832 0.000300000014249235392 -0.0240245051681995392 -0.0538476034998893738 -0.998260080814361572
-3.5214393138885498 3.92466211318969727 3.30029201507568359 -0.686582744121551514 -0.0210004057735204697 -0.726748287677764893
-3.51741886138916016 3.92557907104492188 3.30029201507568359 0.108467318117618561 0.850804626941680908 -0.51416546106338501
-3.51749706268310547 3.92509579658508301 3.30029201507568359 -0.0497725903987884521 0.0426791012287139893 -0.997848272323608398
-2.97398018836975098 1.06026542186737061 0.000300000014249235392 0.602657437324523926 -0.216474235057830811 -0.768077373504638672
-1.10791075229644775 3.9272618293762207 0.000300000014249235392 -0.631330549716949463 -0.57905954122543335 -0.515860140323638916
-1.10760843753814697 3.92750120162963867 0.000300000014249235392 -0.200882971286773682 -0.302167981863021851 -0.931847870349884033
-2.89938735961914062 2.88806438446044922 2.61132502555847168 -0.111850999295711517 0.993545651435852051 0.0188785288482904434
-4.65661478042602539 1.4690406322479248 0.000300000014249235392 0.556175947189331055 0.618614673614501953 -0.554963231086730957
-4.65692901611328125 1.46876645088195801 0.000300000014249235392 -0.0449636764824390411 0.19615250825881958 -0.979541897773742676
-3.35620522499084473 5.30109786987304688 0.000300000014249235392 0.139119938015937805 -0.0463542118668556213 -0.989190042018890381
-3.95229196548461914 5.49970006942749023 4.23793601989746094 -0.093975163996219635 0.826847195625305176 -0.554519832134246826
-3.95216679573059082 5.49970006942749023 4.2384648323059082 0.184938564896583557 0.852366209030151367 -0.48915177583694458
-3.95223879814147949 5.49970006942749023 4.23857212066650391 0.556369423866271973 0.766491889953613281 -0.320847541093826294
-3.95242786407470703 5.49970006942749023 4.23867130279541016 0.0947228297591209412 0.991639137268066406 -0.087631523609161377
-0.214473485946655273 5.49970006942749023 4.37558794021606445 -0.0374320857226848602 0.981893658638000488 -0.185697436332702637
-0.214435338973999023 5.49970006942749023 4.37550687789916992 0.0803775861859321594 0.905902385711669922 -0.415788710117340088
-0.214678525924682617 5.49970006942749023 4.37565279006958008 -0.587330043315887451 0.792310833930969238 -0.165187329053878784
-0.214423894882202148 5.49970006942749023 4.37561416625976562 0.101098783314228058 0.942531228065490723 -0.318455487489700317
-5.02321910858154297 5.49970006942749023 4.18482208251953125 -0.0480894558131694794 0.888900041580200195 -0.455569982528686523
-5.02332592010498047 5.49970006942749023 4.18513107299804688 -0.194606289267539978 0.970604896545410156 -0.141613885760307312
-5.02304840087890625 5.49970006942749023 4.18600654602050781 0.0432676114141941071 0.835697174072265625 0.547483325004577637
-4.25744867324829102 3.09348750114440918 3.3002922534942627 -0.0632327049970626831 0.170545995235443115 -0.983318686485290527
-2.01558899879455566 3.83097314834594727 0.000300000014249235392 -0.116317152976989746 0.467264294624328613 -0.87643277645111084
-0.882726550102233887 4.74577856063842773 0.000300000014249235392 -0.275596082210540771 -0.809142172336578369 -0.518975794315338135
-0.882486581802368164 4.74603271484375 0.000300000014249235392 0.213977620005607605 -0.566996157169342041 -0.795442581176757812
-0.882583856582641602 4.74639892578125 0.000300000014249235392 0.332560181617736816 -0.647812366485595703 -0.685377776622772217
-0.88270723819732666 4.7466278076171875 0.000300000014249235392 0.0724622085690498352 -0.178664594888687134 -0.981238007545471191
-1.39377236366271973 4.71763801574707031 5.49970006942749023 0.172509580850601196 0.106647953391075134 0.979217350482940674
-5.49970006942749023 -0.90532994270324707 0.449864625930786133 -0.989399075508117676 -0.0704140737652778625 -0.127009138464927673
-0.000300000014249235392 3.12426924705505371 4.15620136260986328 0.997869670391082764 -0.0157314762473106384 -0.0633127763867378235
-3.97311091423034668 2.3045501708984375 5.49970006942749023 -0.20544116199016571 -0.753822267055511475 0.624136090278625488
-3.97295808792114258 2.30482864379882812 5.49970006942749023 0.171172305941581726 -0.264506310224533081 0.949071288108825684
-0.000300000014249235392 3.22263193130493164 3.61852836608886719 0.996405839920043945 0.0302090197801589966 -0.0791379734873771667
-3.11783671379089355 3.21809983253479004 3.3002924919128418 -0.103730440139770508 -0.0154990563169121742 -0.99448472261428833
-3.11778640747070312 3.21796131134033203 3.3002924919128418 0.0567551478743553162 -0.430186241865158081 -0.900954246520996094
-3.11894750595092773 3.21861934661865234 3.3002924919128418 -0.929280757904052734 0.244349181652069092 -0.277003109455108643
-3.11800956726074219 3.21836090087890625 3.3002924919128418 -0.223935708403587341 0.0206801034510135651 -0.974384427070617676
-0.000300000014249235392 3.75377392768859863 4.98965549468994141 0.998228788375854492 0.0501157864928245544 -0.0320568718016147614
-5.49970006942749023 4.23862171173095703 4.03210639953613281 -0.997019052505493164 0.0403293929994106293 -0.0657759532332420349
-1.07284379005432129 5.49970006942749023 0.349447011947631836 0.0418253764510154724 0.993258535861968994 -0.108111113309860229
-0.000300000014249235392 0.939828753471374512 5.11141777038574219 0.998731613159179688 -0.045592084527015686 -0.0213654655963182449
-4.507537841796875 5.49970006942749023 4.75907325744628906 -0.0600103698670864105 0.943088650703430176 0.327081978321075439
-4.42914009094238281 5.49970006942749023 5.11612987518310547 0.0826130509376525879 0.924993634223937988 -0.370893239974975586
-3.32688403129577637 5.49970006942749023 4.4489893913269043 0.158654630184173584 0.973766922950744629 0.163115262985229492
-3.32702088356018066 5.49970006942749023 4.44893074035644531 -0.281163185834884644 0.959280490875244141 -0.0269841589033603668
-3.32663464546203613 5.49970006942749023 4.44888496398925781 -0.0405888557434082031 0.997098684310913086 -0.064393751323223114
-5.49970006942749023 3.68395900726318359 3.38141107559204102 -0.994772791862487793 0.0600814670324325562 -0.0825665295124053955
-3.34872770309448242 3.10478997230529785 3.3002924919128418 0.485803544521331787 0.278160244226455688 -0.828626394271850586
-3.34837746620178223 3.10540294647216797 3.3002924919128418 0.723105907440185547 0.64367985725402832 -0.250587373971939087
-3.34922909736633301 3.10472893714904785 3.3002924919128418 0.045449133962392807 0.307287931442260742 -0.950530588626861572
-5.49970006942749023 0.457227230072021484 2.65136909484863281 -0.990865409374237061 -0.0692991688847541809 -0.115686222910881042
-5.49970006942749023 2.74027919769287109 3.1820518970489502 -0.994715034961700439 -0.00135561218485236168 -0.10266459733247757
-3.23796987533569336 5.49970006942749023 5.00152492523193359 -0.0552330575883388519 0.977481245994567871 -0.203665569424629211
-2.29896736145019531 5.49970006942749023 4.7949981689453125 -0.0145561136305332184 0.999211549758911133 -0.0369374826550483704
-4.09900474548339844 2.95614814758300781 3.3002924919128418 0.396267712116241455 0.807111263275146484 -0.437656581401824951
-4.09934234619140625 2.95573711395263672 3.3002924919128418 -0.196309328079223633 0.419060856103897095 -0.886482119560241699
-1.73153448104858398 5.49970006942749023 4.47960758209228516 0.0749520286917686462 0.978897809982299805 -0.190108120441436768
-1.7314227819442749 5.49970006942749023 4.47977352142333984 0.389407068490982056 0.866802811622619629 0.311472177505493164
-1.73164129257202148 5.49970006942749023 4.47938632965087891 0.209239810705184937 0.971858739852905273 -0.108208976686000824
-1.7318565845489502 5.49970006942749023 4.47963237762451172 0.070761948823928833 0.995619654655456543 0.0611078478395938873
-5.09708547592163086 0.0053310394287109375 0.000300000014249235392 -0.0382800586521625519 -0.0677606016397476196 -0.996966958045959473
-5.49970006942749023 1.85925531387329102 1.3921278715133667 -0.990894615650177002 -0.012433227151632309 -0.134064152836799622
-2.12221097946166992 5.49970006942749023 2.89274406433105469 0.343966394662857056 0.919447779655456543 0.190532952547073364
-2.12260866165161133 5.49970006942749023 2.89256739616394043 -0.138641580939292908 0.99017632007598877 -0.018145538866519928
-0.000300000014249235392 2.61461877822875977 3.81075215339660645 0.997966289520263672 0.0071151447482407093 -0.0633436739444732666
-2.67379498481750488 -0.308874845504760742 0.000300000014249235392 -0.480680584907531738 -0.327945172786712646 -0.813263893127441406
-2.67361187934875488 -0.308778285980224609 0.000300000014249235392 0.0187575872987508774 -0.0809629783034324646 -0.996540546417236328
-5.49970006942749023 2.51166510581970215 3.98528385162353516 -0.996453404426574707 0.00243017170578241348 -0.0841106101870536804
-0.216363430023193359 5.49970006942749023 5.43491935729980469 0.0622884258627891541 0.916836261749267578 0.394374608993530273
-0.000300000014249235392 2.26381635665893555 4.33169221878051758 0.998330116271972656 -0.0345085896551609039 -0.0463267304003238678
-2.45507669448852539 5.49970006942749023 0.983166933059692383 0.31268957257270813 0.946775078773498535 -0.0764338821172714233
-2.99508428573608398 5.49970006942749023 4.76428127288818359 0.152943909168243408 0.950133681297302246 0.271761178970336914
-5.49970006942749023 3.16353058815002441 4.79149389266967773 -0.998708367347717285 0.027537057176232338 -0.0426982566714286804
-1.84000813961029053 5.49970006942749023 2.92961788177490234 0.122021310031414032 0.466660797595977783 0.875978529453277588
-1.84010565280914307 5.49970006942749023 2.92909407615661621 -0.062945932149887085 0.989596247673034668 0.129371047019958496
-0.668014287948608398 5.49970006942749023 0.235288381576538086 0.0650359094142913818 0.95384061336517334 -0.293186604976654053
-5.49970006942749023 2.97852134704589844 3.52494692802429199 -0.995286107063293457 0.0398884527385234833 -0.0883987098932266235
-3.61024308204650879 5.49970006942749023 5.453704833984375 -0.239933609962463379 0.948233902454376221 -0.208048567175865173
-3.61030435562133789 5.49970006942749023 5.45364713668823242 -0.389121979475021362 0.851823925971984863 -0.350684940814971924
-3.60995316505432129 5.49970006942749023 5.45400428771972656 -0.0625484287738800049 0.998041510581970215 -0.00077666289871558547
-1.13133704662322998 5.49970006942749023 4.50226926803588867 0.19199119508266449 0.972583591938018799 0.131226867437362671
-1.1317296028137207 5.49970006942749023 4.50224637985229492 0.147022619843482971 0.987209796905517578 -0.0616523586213588715
-0.000300000014249235392 2.26149630546569824 3.84410762786865234 0.997646331787109375 0.00805541034787893295 -0.0680940300226211548
-2.36442780494689941 1.79236102104187012 2.7932133674621582 0.765534341335296631 -0.17278704047203064 -0.619759440422058105
-3.2600245475769043 4.3092961311340332 3.30029201507568359 -0.272974491119384766 0.117467410862445831 -0.9548225998878479
-3.25894451141357422 4.3099665641784668 3.30029201507568359 0.364265948534011841 0.206393107771873474 -0.908136606216430664
-1.05685555934906006 5.14200401306152344 0.000300000014249235392 -0.241196334362030029 0.968622744083404541 -0.0599516555666923523
-1.05573689937591553 5.1372828483581543 0.000300000014249235392 -0.26136508584022522 0.370895266532897949 -0.891136884689331055
-1.05542707443237305 5.13701534271240234 0.000300000014249235392 0.0950425714254379272 0.0958165973424911499 -0.990851163864135742
-0.000300000014249235392 0.305849790573120117 4.85568428039550781 0.992953300476074219 -0.114010505378246307 -0.0323316194117069244
-1.05391025543212891 4.34002780914306641 0.000300000014249235392 0.1465301513671875 -0.0900732055306434631 -0.985096752643585205
-5.49970006942749023 0.997875332832336426 3.96555423736572266 -0.995749294757843018 -0.0412199497222900391 -0.0823664739727973938
-0.000300000014249235392 2.79105424880981445 2.74809598922729492 0.994314432144165039 0.0162512045353651047 -0.105235837399959564
-2.45462560653686523 5.49970006942749023 3.76480388641357422 0.519390881061553955 0.81058579683303833 0.270524919033050537
-2.45479989051818848 5.49970006942749023 3.76467275619506836 0.0589432492852210999 0.993020355701446533 -0.102157637476921082
-0.000300000014249235392 5.03757381439208984 2.61878752708435059 0.990764260292053223 0.101522393524646759 -0.0898849815130233765
-0.17522740364074707 4.21601152420043945 5.49970006942749023 0.21335466206073761 0.222276777029037476 0.951353073120117188
-0.17514801025390625 4.21592283248901367 5.49970006942749023 0.308390200138092041 0.109820716083049774 0.944899380207061768
-0.179766416549682617 4.21478462219238281 5.49970006942749023 0.0683359354734420776 0.334481567144393921 0.939921379089355469
-3.62112975120544434 0.673045039176940918 0.932513236999511719 -0.331702321767807007 -0.684356510639190674 0.649330198764801025
-3.6213221549987793 0.67318260669708252 0.932218432426452637 -0.917243719100952148 -0.386746376752853394 -0.0953472927212715149
-0.000300000014249235392 0.531128883361816406 1.44984638690948486 0.994975745677947998 -0.0256965290755033493 0.0967617854475975037
-3.9327852725982666 2.69188165664672852 3.3002924919128418 -0.525839805603027344 0.144934594631195068 -0.838144659996032715
-3.93252706527709961 2.69158339500427246 3.3002924919128418 -0.584618270397186279 -0.415354937314987183 -0.696922957897186279
-3.93231105804443359 2.69178628921508789 3.3002924919128418 -0.116595976054668427 0.0794135704636573792 -0.98999941349029541
-0.000300000014249235392 0.358817100524902344 3.21305370330810547 0.993566155433654785 -0.0845025181770324707 -0.0754029974341392517
-2.10865879058837891 5.49970006942749023 4.57767581939697266 0.207146391272544861 0.977777957916259766 0.0322579629719257355
-0.000300000014249235392 0.856658577919006348 1.61975371837615967 0.99072420597076416 -0.0696856305003166199 -0.116659127175807953
-3.30311822891235352 0.999412059783935547 0.000300000014249235392 0.23222053050994873 -0.68578338623046875 -0.689764261245727539
-3.30321836471557617 0.999729275703430176 0.000300000014249235392 0.00213333894498646259 0.0635360479354858398 -0.997977256774902344
-2.13239336013793945 5.49970006942749023 4.72592830657958984 0.0577903129160404205 0.951256513595581055 0.302937716245651245
-2.13240504264831543 5.49970006942749023 4.72576045989990234 0.0466136299073696136 0.993816375732421875 0.100777439773082733
-0.625084400177001953 5.49970006942749023 4.23157119750976562 0.105424262583255768 0.977021694183349609 0.185240909457206726
-0.625331401824951172 5.49970006942749023 4.23068094253540039 0.20335601270198822 0.970149517059326172 -0.132122114300727844
-0.625475645065307617 5.49970006942749023 4.23056983947753906 -0.235042199492454529 0.86718297004699707 -0.439031660556793213
-0.625190973281860352 5.49970006942749023 4.23096179962158203 0.0751249194145202637 0.995967388153076172 -0.0490425899624824524
-1.89995443820953369 2.20443344116210938 2.78516268730163574 0.0991275161504745483 -0.780666351318359375 -0.617036342620849609
-4.18147134780883789 5.49970006942749023 4.67040586471557617 -0.460694193840026855 0.80878525972366333 0.365550726652145386
-4.18139171600341797 5.49970006942749023 4.67032909393310547 -0.284840434789657593 0.940744102001190186 0.184028252959251404
-4.18069744110107422 5.49970006942749023 4.66985130310058594 0.641963183879852295 0.714092254638671875 -0.279205024242401123
-4.1809849739074707 5.49970006942749023 4.66995620727539062 -0.0602192841470241547 0.997329652309417725 -0.0413167178630828857
-2.34793281555175781 4.77309703826904297 0.000300000014249235392 0.0452340580523014069 0.2698231041431427 -0.961846768856048584
-5.49970006942749023 2.89416885375976562 5.3278803825378418 -0.999389886856079102 0.033953886479139328 -0.00817429367452859879
-5.49970006942749023 -0.535900354385375977 2.24493503570556641 -0.991143465042114258 -0.102012306451797485 -0.0850181952118873596
-3.30314040184020996 4.24196815490722656 3.30029201507568359 0.528136730194091797 -0.126239672303199768 -0.83972322940826416
-3.30370187759399414 4.24218893051147461 3.30029201507568359 -0.000790220452472567558 0.115371875464916229 -0.993322014808654785
-2.94672536849975586 5.49970006942749023 5.42535734176635742 0.74051964282989502 0.669672608375549316 0.0562967509031295776
-2.94681954383850098 5.49970006942749023 5.42522335052490234 0.597530603408813477 0.754021048545837402 -0.27278098464012146
-2.94765090942382812 5.49970006942749023 5.42612838745117188 0.203792303800582886 0.627996265888214111 0.751058816909790039
-2.94764471054077148 5.49970006942749023 5.42580080032348633 0.324482053518295288 0.940915942192077637 0.0968941450119018555
-2.94824433326721191 5.49970006942749023 5.42578029632568359 -0.0309683233499526978 0.993949770927429199 0.105379454791545868
-5.49970006942749023 1.84873175621032715 4.48160743713378906 -0.996696710586547852 -0.0354151055216789246 -0.0730838924646377563
-3.15566205978393555 3.81224298477172852 5.49970006942749023 0.331903398036956787 0.437033027410507202 0.835967838764190674
-3.15575480461120605 3.81210994720458984 5.49970006942749023 0.0873307958245277405 0.0794186368584632874 0.99300849437713623
-2.14492583274841309 5.49970006942749023 3.23525142669677734 0.615873456001281738 0.622152447700500488 0.483348846435546875
-2.1451261043548584 5.49970006942749023 3.23500823974609375 0.306359380483627319 0.951346039772033691 -0.0329335480928421021
-3.62275362014770508 3.42738795280456543 5.49970006942749023 0.0237111672759056091 0.0120352096855640411 0.999646365642547607
-2.82299256324768066 0.19350433349609375 0.000300000014249235392 0.0032792738638818264 -0.0668441653251647949 -0.997758030891418457
-3.85996866226196289 5.49970006942749023 1.99851703643798828 -0.415541499853134155 0.80098336935043335 -0.43098825216293335
-3.85982656478881836 5.49970006942749023 1.99864256381988525 -0.0444893054664134979 0.991938650608062744 -0.118652202188968658
-3.44960689544677734 3.87458395957946777 3.3002922534942627 0.299334436655044556 -0.101231694221496582 -0.948762834072113037
-3.44977903366088867 3.87467193603515625 3.3002922534942627 -0.245268493890762329 0.177266836166381836 -0.953110575675964355
-0.564406633377075195 4.63762092590332031 0.000300000014249235392 0.0593923293054103851 0.0644876360893249512 -0.996149420738220215
-3.16266536712646484 2.81591296195983887 3.3002924919128418 -0.0822170451283454895 0.197067365050315857 -0.976936399936676025
-3.16266608238220215 2.81568479537963867 3.3002924919128418 -0.0756225213408470154 -0.48688805103302002 -0.870184540748596191
-3.16262006759643555 2.81613397598266602 3.3002924919128418 -0.0370628684759140015 -0.0287518929690122604 -0.998899221420288086
-5.41676044464111328 -0.493649482727050781 0.000300000014249235392 0.423151701688766479 0.293356567621231079 -0.8572540283203125
-5.41699028015136719 -0.493727922439575195 0.000300000014249235392 -0.263720929622650146 0.0771610736846923828 -0.961507856845855713
-5.41612911224365234 -0.493849515914916992 0.000300000014249235392 0.114384397864341736 0.290650695562362671 -0.949967503547668457
-5.4162592887878418 -0.494132518768310547 0.000300000014249235392 -0.05230727419257164 -0.0667495951056480408 -0.996397733688354492
-3.87092304229736328 5.49970006942749023 5.25899600982666016 -0.83022385835647583 0.499824762344360352 -0.246786341071128845
-3.87048530578613281 5.49970006942749023 5.25918197631835938 -0.195825099945068359 0.972883760929107666 0.123083904385566711
-1.94217300415039062 3.6475677490234375 0.000300000014249235392 0.215108677744865417 -0.451769113540649414 -0.86581343412399292
-1.94239068031311035 3.64760565757751465 0.000300000014249235392 -0.405443131923675537 -0.33661264181137085 -0.849886894226074219
-1.94259905815124512 3.64747929573059082 0.000300000014249235392 -0.74506610631942749 -0.532021760940551758 -0.402280151844024658
-1.94209003448486328 3.64782571792602539 0.000300000014249235392 -0.150865569710731506 -0.163914382457733154 -0.974870026111602783
-1.15934312343597412 5.49970006942749023 4.85092926025390625 0.051372084766626358 0.998045682907104492 -0.0355760566890239716
-1.74204206466674805 3.05263161659240723 0.000300000014249235392 0.0997437834739685059 -0.535282552242279053 -0.838763117790222168
-1.74208593368530273 3.05288195610046387 0.000300000014249235392 -0.0267312861979007721 0.192800804972648621 -0.980873703956604004
-2.3402099609375 3.77853608131408691 0.000300000014249235392 0.323680460453033447 0.383172094821929932 -0.865106940269470215
-0.000300000014249235392 4.99664592742919922 4.04608631134033203 0.995295345783233643 0.0752172544598579407 -0.0610689520835876465
-3.41428709030151367 1.30896496772766113 0.000300000014249235392 -0.00442077778279781342 -0.0262117907404899597 -0.999646544456481934
-4.38661623001098633 5.49970006942749023 5.42950248718261719 0.305507481098175049 0.902790606021881104 -0.30271148681640625
-4.38693332672119141 5.49970006942749023 5.42984390258789062 -0.0619077272713184357 0.993362903594970703 0.0969399213790893555
-3.04710149765014648 5.49970006942749023 4.4856257438659668 0.0451870746910572052 0.956319332122802734 0.288810133934020996
-5.27137184143066406 1.13356173038482666 0.000300000014249235392 -0.0585686899721622467 0.36527743935585022 -0.929054379463195801
-5.27136754989624023 1.1334383487701416 0.000300000014249235392 -0.04894246906042099 -0.0183975640684366226 -0.998632133007049561
-1.77959752082824707 5.49970006942749023 4.32026767730712891 0.0365285910665988922 0.991885125637054443 -0.12177632749080658
-1.77942788600921631 5.49970006942749023 4.32027053833007812 0.250426024198532104 0.961698055267333984 -0.111461050808429718
-1.12047302722930908 5.49970006942749023 5.12566852569580078 -0.470762372016906738 0.880332708358764648 -0.0582847669720649719
-1.97404789924621582 5.49970006942749023 4.87287425994873047 0.138344287872314453 0.952135741710662842 -0.272577017545700073
-1.9740746021270752 5.49970006942749023 4.87295007705688477 0.0558906793594360352 0.997877359390258789 -0.033420562744140625
-0.000300000014249235392 1.45635652542114258 3.67306852340698242 0.996058762073516846 -0.0272669773548841476 -0.0844002813100814819
-5.49970006942749023 1.89920973777770996 4.75779151916503906 -0.997147202491760254 -0.0680422857403755188 -0.0326753295958042145
-0.000300000014249235392 2.76236891746520996 3.31733369827270508 0.982898294925689697 0.156039193272590637 0.0977888032793998718
-3.63711690902709961 5.49970006942749023 4.56691646575927734 -0.00988485012203454971 0.998936176300048828 -0.0450414270162582397
-1.87841486930847168 2.19103336334228516 2.80399990081787109 0.0625481158494949341 -0.752321481704711914 -0.655820131301879883
-1.39889955520629883 4.44988536834716797 0.000300000014249235392 -0.0111020710319280624 0.172717437148094177 -0.984908819198608398
-0.490050554275512695 4.38424396514892578 0.000300000014249235392 0.138923734426498413 -0.0166073460131883621 -0.990163803100585938
-0.853423953056335449 3.68904662132263184 0.000300000014249235392 -0.125509083271026611 0.544008076190948486 -0.829640030860900879
-0.853354573249816895 3.68890619277954102 0.000300000014249235392 0.078152187168598175 0.183723077178001404 -0.979866266250610352
-3.53945255279541016 3.17406821250915527 3.3002924919128418 0.207128256559371948 0.727584600448608398 -0.654001891613006592
-3.53959274291992188 3.17371654510498047 3.3002924919128418 -0.148035869002342224 -0.0584315434098243713 -0.98725426197052002
-5.49970006942749023 2.56153273582458496 0.714698314666748047 -0.991258382797241211 0.0217127557843923569 -0.130135715007781982
-1.21969318389892578 5.49970006942749023 5.06890392303466797 0.0381818637251853943 0.992736935615539551 0.114084720611572266
-2.81411457061767578 1.22678661346435547 1.65029621124267578 -0.407221078872680664 -0.365874141454696655 -0.836843490600585938
-2.81413459777832031 1.22700643539428711 1.65029621124267578 -0.657808065414428711 -0.396097779273986816 -0.640620827674865723
-2.81392335891723633 1.22720003128051758 1.65029621124267578 -0.306606978178024292 0.0258212536573410034 -0.951485872268676758
-0.74412989616394043 4.80098628997802734 0.000300000014249235392 0.13130226731300354 -0.103745125234127045 -0.985898852348327637
-5.49970006942749023 3.58817005157470703 4.39548778533935547 -0.996862471103668213 0.0432508736848831177 -0.066291026771068573
-5.49970006942749023 3.49483227729797363 4.4857640266418457 -0.99851071834564209 0.0142064383253455162 -0.052672307938337326
-0.000300000014249235392 2.05544137954711914 4.49738025665283203 0.997801244258880615 -0.00772977015003561974 -0.0658246129751205444
-0.445993423461914062 4.05247020721435547 0.000300000014249235392 0.0393743962049484253 0.0372533537447452545 -0.998529791831970215
-3.0642707347869873 5.49970006942749023 4.27123308181762695 -0.538364529609680176 0.808053791522979736 0.239191710948944092
-3.0641326904296875 5.49970006942749023 4.27109956741333008 -0.199229389429092407 0.969231843948364258 -0.144558221101760864
-3.29845857620239258 5.49970006942749023 4.98219728469848633 -0.00797579344362020493 0.999651074409484863 -0.0251799114048480988
-1.38699758052825928 3.36642003059387207 0.000300000014249235392 0.422238290309906006 0.175388798117637634 -0.889355659484863281
-0.45506739616394043 5.44650697708129883 0.000300000014249235392 -0.0013544358080253005 0.00343057489953935146 -0.99999314546585083
-0.456115961074829102 5.44680023193359375 0.000300000014249235392 -0.842943668365478516 0.459812402725219727 -0.279318004846572876
-0.455329656600952148 5.44627094268798828 0.000300000014249235392 -0.366085857152938843 -0.109452873468399048 -0.924121856689453125
-0.455009937286376953 5.44615745544433594 0.000300000014249235392 0.0126335658133029938 -0.263873904943466187 -0.96447443962097168
-0.454977989196777344 5.44665718078613281 0.000300000014249235392 0.0371683165431022644 0.0677748098969459534 -0.997008025646209717
-5.49970006942749023 2.56557679176330566 4.91316556930541992 -0.999460935592651367 -0.012251497246325016 -0.0304559599608182907
-2.70798683166503906 -0.198274374008178711 0.000300000014249235392 0.00631086016073822975 -0.0558719858527183533 -0.998417973518371582
-0.000300476851407438517 3.7808680534362793 1.44606983661651611 0.878230750560760498 0.270648181438446045 -0.394284456968307495
-3.2496802806854248 2.77940034866333008 2.90506315231323242 0.140237599611282349 0.988008737564086914 -0.0645909830927848816
-5.36098480224609375 5.49970006942749023 2.53065872192382812 -0.128622531890869141 0.991364598274230957 0.0255421139299869537
-4.12448501586914062 5.49970006942749023 1.7077796459197998 -0.47201201319694519 0.739332973957061768 -0.480199247598648071
-0.813838958740234375 5.49970006942749023 5.155609130859375 0.4633445143699646 0.701841175556182861 0.541046082973480225
-0.814011454582214355 5.49970006942749023 5.15537452697753906 0.0847880765795707703 0.996329069137573242 -0.0118044661357998848
-2.71072554588317871 1.69182515144348145 0.167151927947998047 0.940398931503295898 -0.246404111385345459 0.234381705522537231
-2.99770021438598633 1.75328564643859863 0.000300000014249235392 0.323379725217819214 0.0159354899078607559 -0.946135044097900391
-2.99981021881103516 1.75290012359619141 0.000300000014249235392 0.396078437566757202 -0.426200389862060547 -0.813311159610748291
-5.49970006942749023 1.35082471370697021 1.92566466331481934 -0.993575096130371094 -0.0361442789435386658 -0.107247635722160339
-4.77142906188964844 5.49970006942749023 2.35752487182617188 -0.200084969401359558 0.97729569673538208 0.069706253707408905
-4.77142429351806641 5.49970006942749023 2.35734963417053223 -0.165406003594398499 0.877514839172363281 -0.450120478868484497
-4.77197027206420898 5.49970006942749023 2.35737085342407227 -0.7865486741065979 0.459392964839935303 -0.412673294544219971
-4.77157020568847656 5.49970006942749023 2.3575587272644043 -0.34349396824836731 0.906313240528106689 -0.246187105774879456
-5.49970006942749023 -0.175104618072509766 2.84363150596618652 -0.992639422416687012 -0.0670234337449073792 -0.100869610905647278
-3.11474871635437012 5.49970006942749023 5.10576725006103516 0.758852660655975342 0.400229156017303467 0.513769686222076416
-3.11526346206665039 5.49970006942749023 5.10539340972900391 0.176307335495948792 0.983640670776367188 0.0369688346982002258
-5.49970006942749023 4.81481695175170898 4.88974094390869141 -0.99246370792388916 0.118365354835987091 -0.0317051224410533905
