ply
format ascii 1.0
element vertex 375
property float x
property float y
property float z
property float nx
property float ny
property float nz
end_header
-5.08745765686035156 -0.646608591079711914 0.000300000014249235392 0.0050983908586204052 -0.186222463846206665 -0.982494354248046875
-1.05338692665100098 5.49970006942749023 4.65649032592773438 0.0930946096777915955 0.994847774505615234 -0.040139276534318924
-0.409145832061767578 3.35365557670593262 0.000300000014249235392 0.181294888257980347 -0.077406369149684906 -0.980377614498138428
-5.49970006942749023 2.59670472145080566 3.24292850494384766 -0.994427204132080078 -0.00109488784801214933 -0.105419039726257324
-1.01916766166687012 3.79787015914916992 0.000300000014249235392 0.48577725887298584 0.668595016002655029 -0.563028514385223389
-1.01941525936126709 3.79752826690673828 0.000300000014249235392 0.0367290973663330078 0.0473476126790046692 -0.998202919960021973
-5.49970006942749023 0.191644191741943359 2.90686297416687012 -0.992984950542449951 -0.0604837685823440552 -0.101599708199501038
-0.000300000014249235392 2.39143562316894531 4.37352085113525391 0.998248875141143799 0.0223747063428163528 -0.0547585934400558472
-4.22147798538208008 2.77607274055480957 3.3002924919128418 -0.273993551731109619 0.566792607307434082 -0.776964247226715088
-4.22143316268920898 2.77582406997680664 3.3002924919128418 -0.198105677962303162 -0.0977356284856796265 -0.975295782089233398
-5.49970006942749023 5.03091907501220703 3.57045698165893555 -0.49069640040397644 0.86514127254486084 0.1036711186170578
-4.22138309478759766 2.77653861045837402 3.3002924919128418 -0.348180234432220459 0.433457791805267334 -0.831194818019866943
-4.22105169296264648 2.77605152130126953 3.3002924919128418 -0.0676111653447151184 -0.016650540754199028 -0.997572779655456543
-2.43501377105712891 3.31510734558105469 0.000300000014249235392 0.456946909427642822 -0.46505776047706604 -0.758235275745391846
-2.43526005744934082 3.3152778148651123 0.000300000014249235392 -0.213668882846832275 -0.0433036386966705322 -0.975945830345153809
-0.000300000014249235392 1.71352601051330566 2.6656334400177002 0.993794679641723633 -0.0458442792296409607 -0.10134260356426239
-2.97465991973876953 3.50990080833435059 3.3002922534942627 -0.659859418869018555 0.493323534727096558 -0.566760480403900146
-2.97441959381103516 3.50959610939025879 3.3002922534942627 -0.339285790920257568 -0.134075194597244263 -0.931079506874084473
-5.49970006942749023 5.26151657104492188 4.64650154113769531 -0.997880160808563232 -0.0609383545815944672 -0.0228384789079427719
-3.65977740287780762 5.49970006942749023 4.73582124710083008 -0.673008918762207031 0.615001201629638672 0.410892456769943237
-3.65964508056640625 5.49970006942749023 4.73553562164306641 -0.5320015549659729 0.814445018768310547 -0.231632694602012634
-3.65941262245178223 5.49970006942749023 4.73616504669189453 -0.501810669898986816 0.577886223793029785 0.643609762191772461
-3.65923833847045898 5.49970006942749023 4.73584699630737305 -0.275614291429519653 0.959942936897277832 0.0504597797989845276
-5.49970006942749023 2.30425572395324707 4.25627517700195312 -0.997292041778564453 -0.045317232608795166 -0.0579207688570022583
-2.46007418632507324 3.76618146896362305 5.49970006942749023 0.340527355670928955 0.0414266474545001984 0.939321517944335938
-2.46010899543762207 3.76606369018554688 5.49970006942749023 0.302953422069549561 -0.103908926248550415 0.94732367992401123
-2.82245898246765137 -0.0515363216400146484 0.000300000014249235392 0.0883592516183853149 0.190714567899703979 -0.977660775184631348
-3.18163061141967773 3.58236479759216309 3.30029201507568359 -0.241842150688171387 0.525327682495117188 -0.815808296203613281
-3.18143367767333984 3.58171176910400391 3.3002922534942627 0.306506544351577759 -0.316724628210067749 -0.897629797458648682
-3.18165254592895508 3.58185839653015137 3.3002922534942627 -0.359176278114318848 0.125564217567443848 -0.924784302711486816
-3.1505434513092041 5.49970006942749023 4.08514118194580078 0.0479494258761405945 0.998360872268676758 -0.0312479119747877121
-3.15062904357910156 5.49970006942749023 4.08503150939941406 -0.0664317533373832703 0.982281088829040527 -0.175244450569152832
-0.000300000014249235392 4.0405125617980957 3.42897868156433105 0.993664324283599854 0.0806562080979347229 -0.0782670378684997559
-2.19804000854492188 5.49970006942749023 4.13068532943725586 0.583891034126281738 0.795957744121551514 -0.159757688641548157
-0.000300000014249235392 2.47940397262573242 4.32461023330688477 0.997669458389282227 -0.0285472795367240906 -0.0619731172919273376
-5.49970006942749023 -0.097507476806640625 4.93036794662475586 -0.995730400085449219 -0.0888473466038703918 -0.0250394847244024277
-1.87661647796630859 5.49970006942749023 4.49179840087890625 -0.00923146028071641922 0.953643918037414551 0.300795763731002808
-4.68088102340698242 4.51570987701416016 5.49970006942749023 0.104401364922523499 0.172202408313751221 0.97951352596282959
-4.6809382438659668 4.51556921005249023 5.49970006942749023 -0.0805016681551933289 -0.279539823532104492 0.956753373146057129
-0.000300000014249235392 1.74866235256195068 3.90019798278808594 0.996671199798583984 -0.0468925982713699341 -0.0666893124580383301
-3.68672347068786621 5.49970006942749023 4.22230863571166992 0.250748276710510254 0.960687100887298584 -0.119187019765377045
-3.68682622909545898 5.49970006942749023 4.22230672836303711 -0.0806409865617752075 0.988344311714172363 -0.129122063517570496
-2.76485300064086914 3.2660987377166748 3.3002924919128418 -0.0801633968949317932 -0.232227832078933716 -0.969352304935455322
-5.49970006942749023 2.19727659225463867 3.36050128936767578 -0.994896769523620605 0.0209351796656847 -0.0987017080187797546
-5.49970006942749023 1.99226057529449463 3.4024655818939209 -0.994771838188171387 0.0122998030856251717 -0.101378627121448517
-3.88962578773498535 1.27958524227142334 0.000300000014249235392 -0.218655943870544434 0.286323130130767822 -0.932849705219268799
-0.000300000014249235392 0.567928552627563477 0.823093891143798828 0.989986538887023926 -0.0733809098601341248 -0.120589211583137512
-3.35031461715698242 0.208085298538208008 0.000300000014249235392 0.465983062982559204 -0.0714482888579368591 -0.881904125213623047
-3.35047578811645508 0.208098411560058594 0.000300000014249235392 -0.00880659651011228561 -0.0376528725028038025 -0.999252021312713623
-4.20741653442382812 5.49970006942749023 4.91973447799682617 -0.269128382205963135 0.937837839126586914 -0.219157591462135315
-2.54482674598693848 1.63281083106994629 1.65029633045196533 -0.646703839302062988 -0.202034845948219299 -0.735497117042541504
-2.54458141326904297 1.63288748264312744 1.65029633045196533 -0.0611134245991706848 -0.0194092802703380585 -0.997942090034484863
-4.51010894775390625 1.41075336933135986 0.000300000014249235392 0.0718470141291618347 0.0599312782287597656 -0.995613455772399902
-4.5098724365234375 1.41063833236694336 0.000300000014249235392 0.349042683839797974 -0.0851131901144981384 -0.933233499526977539
-0.000300000014249235392 1.77456092834472656 4.16714763641357422 0.996163010597229004 -0.0362623892724514008 -0.0796506553888320923
-0.000300000014249235392 5.00508594512939453 4.79325962066650391 0.9940834641456604 0.104349307715892792 -0.0301519911736249924
-2.26863479614257812 5.49970006942749023 0.11543583869934082 -0.300520151853561401 0.939736247062683105 -0.163044124841690063
-5.49970006942749023 1.86835622787475586 2.81396031379699707 -0.994602560997009277 -0.00560295255854725838 -0.103606194257736206
-4.50889205932617188 5.49970006942749023 5.38881254196166992 0.0230238009244203568 0.992346286773681641 0.121320612728595734
-3.86252665519714355 5.49970006942749023 3.57704401016235352 0.210439175367355347 0.741934418678283691 -0.636591315269470215
-3.8625946044921875 5.49970006942749023 3.57721281051635742 0.0549300238490104675 0.957731008529663086 -0.282371848821640015
-2.96755170822143555 5.49970006942749023 4.91312885284423828 -0.0943123996257781982 0.960473299026489258 -0.261908590793609619
-0.646203994750976562 5.49970006942749023 5.01613283157348633 -0.115091122686862946 0.983107089996337891 -0.142318114638328552
-5.49970006942749023 2.47968411445617676 4.62243556976318359 -0.998175978660583496 -0.0447583422064781189 -0.0405135862529277802
-0.000300000014249235392 2.94074892997741699 1.35663866996765137 0.99126589298248291 0.0116922976449131966 -0.131358906626701355
-5.49970006942749023 1.92526912689208984 5.30982255935668945 -0.99678504467010498 -0.0793737247586250305 -0.0109235141426324844
-3.12067294120788574 5.49970006942749023 4.76611328125 0.107881665229797363 0.991335391998291016 -0.0749367251992225647
-0.000300000014249235392 4.99054718017578125 4.10482263565063477 0.994119763374328613 0.0927711725234985352 -0.055850934237241745
-5.49970006942749023 1.90162873268127441 4.95086097717285156 -0.999616146087646484 -0.00146990921348333359 -0.0276644639670848846
-2.72146964073181152 5.49970006942749023 5.37891864776611328 0.363315403461456299 0.499382227659225464 -0.786523580551147461
-2.72153806686401367 5.49970006942749023 5.37935829162597656 0.44458964467048645 0.890573501586914062 -0.0960151255130767822
-2.72185182571411133 5.49970006942749023 5.37938213348388672 0.124375402927398682 0.988533377647399902 -0.0856296643614768982
-5.42209482192993164 1.90378141403198242 0.000300000014249235392 -0.0583314858376979828 -0.00302452407777309418 -0.998292624950408936
-2.19295740127563477 5.49970006942749023 4.18547773361206055 -0.12007344514131546 0.983401834964752197 0.136026039719581604
-5.49970006942749023 2.27092647552490234 4.52783298492431641 -0.998850464820861816 -0.0278445035219192505 -0.0390176251530647278
-3.79216098785400391 5.49970006942749023 4.91712760925292969 -0.450612306594848633 0.803559660911560059 -0.388896316289901733
-3.79175043106079102 5.49970006942749023 4.91762495040893555 -0.191591948270797729 0.981199741363525391 0.0232266653329133987
-0.266381978988647461 5.49970006942749023 2.7525324821472168 0.0675977319478988647 0.992685019969940186 -0.100034013390541077
-2.8145911693572998 3.09853744506835938 3.3002924919128418 -0.798439085483551025 0.256792366504669189 -0.544566452503204346
-2.81415510177612305 3.09845447540283203 3.3002924919128418 -0.0119409086182713509 0.19152987003326416 -0.981414079666137695
-0.000300000014249235392 4.67968893051147461 1.14925825595855713 0.99115598201751709 0.0760032162070274353 -0.108780600130558014
-3.71251964569091797 2.63582324981689453 2.30757927894592285 -0.196574553847312927 0.95029151439666748 -0.241463124752044678
-3.71277022361755371 2.63574552536010742 2.30791544914245605 -0.435318320989608765 0.900239944458007812 0.00812336616218090057
-5.49970006942749023 -0.676485061645507812 5.20588493347167969 -0.994064271450042725 -0.108450271189212799 -0.00864083319902420044
-0.000300000014249235392 -0.521528720855712891 5.04633522033691406 0.995197713375091553 -0.0961390882730484009 -0.0184030961245298386
-3.26524209976196289 5.49970006942749023 4.98532009124755859 -0.0480292923748493195 0.998645126819610596 -0.0200249012559652328
-1.33342599868774414 5.49970006942749023 4.5228276252746582 0.0381915755569934845 0.998551726341247559 -0.0378913134336471558
-4.03973531723022461 4.26251077651977539 2.07418656349182129 0.402246475219726562 -0.122259221971035004 -0.907331466674804688
-4.04017496109008789 4.2623744010925293 2.07513165473937988 0.194982379674911499 -0.798958837985992432 -0.568899393081665039
-4.25403118133544922 5.49970006942749023 3.90753579139709473 -0.639963924884796143 0.558855354785919189 -0.52737736701965332
-4.25368785858154297 5.49970006942749023 3.90766215324401855 -0.000286026130197569728 0.886407911777496338 -0.462904781103134155
-3.13117194175720215 4.52634239196777344 2.49963164329528809 -0.73953479528427124 0.388121962547302246 -0.549954056739807129
-3.13108992576599121 4.52607822418212891 2.49986958503723145 -0.965757966041564941 -0.221607804298400879 -0.134912669658660889
-1.74424088001251221 5.49970006942749023 3.83856058120727539 -0.147751525044441223 0.971813201904296875 -0.183707788586616516
-0.000300000014249235392 1.83283162117004395 3.56955075263977051 0.994663894176483154 -0.0166106577962636948 -0.101822391152381897
-3.26134705543518066 3.57704830169677734 3.3002922534942627 -0.0791337713599205017 -0.141843438148498535 -0.986720919609069824
-3.83871364593505859 2.59667634963989258 1.15255022048950195 -0.190361708402633667 0.93753129243850708 0.291200131177902222
-3.83931803703308105 2.59648895263671875 1.15237927436828613 -0.934130012989044189 0.29839015007019043 0.195868641138076782
-3.83898639678955078 2.59659194946289062 1.15224671363830566 -0.536922752857208252 0.838970422744750977 -0.0885582491755485535
-5.49970006942749023 1.82512354850769043 5.16591596603393555 -0.999756693840026855 -0.000997397233732044697 -0.0220304783433675766
-3.56846022605895996 4.06690168380737305 3.30029201507568359 -0.550451993942260742 0.369429975748062134 -0.748681485652923584
-3.56843066215515137 4.06679534912109375 3.30029201507568359 -0.533617258071899414 0.11635492742061615 -0.837683796882629395
-3.568084716796875 4.06648826599121094 3.30029201507568359 -0.272226065397262573 -0.220690995454788208 -0.936583399772644043
-3.56778120994567871 4.06607341766357422 3.30029201507568359 -0.233453229069709778 -0.835659444332122803 -0.497164726257324219
-3.5676426887512207 4.06640148162841797 3.30029201507568359 -0.00623966334387660027 -0.506716430187225342 -0.862090110778808594
-0.938338279724121094 5.49970006942749023 4.31483745574951172 0.114684134721755981 0.990353107452392578 0.0777693837881088257
-0.000300000014249235392 1.4642869234085083 3.68966031074523926 0.993942141532897949 -0.0442486293613910675 -0.100603356957435608
-2.25203466415405273 5.49970006942749023 4.51591587066650391 0.181534707546234131 0.982155323028564453 0.0491516776382923126
-3.95939040184020996 2.56652212142944336 3.3002924919128418 -0.416418164968490601 0.695206522941589355 -0.585904300212860107
-3.9591975212097168 2.5661766529083252 3.3002924919128418 -0.0668548792600631714 0.0338006503880023956 -0.997189998626708984
-3.09573912620544434 5.49970006942749023 3.78363752365112305 0.599790513515472412 0.800156712532043457 0.000733847671654075384
-3.0959935188293457 5.49970006942749023 3.78354454040527344 -0.0938600748777389526 0.951262712478637695 -0.29375070333480835
-1.41763687133789062 5.49970006942749023 2.48224639892578125 0.447772115468978882 0.833509266376495361 -0.323670238256454468
-1.41778910160064697 5.49970006942749023 2.48240923881530762 0.0296205002814531326 0.987790942192077637 0.152943342924118042
-2.19872093200683594 1.98824036121368408 1.65029633045196533 0.335581660270690918 0.215899363160133362 -0.916936337947845459
-3.48914265632629395 0.935947537422180176 0.000300000014249235392 0.268764585256576538 -0.373441189527511597 -0.887866616249084473
-5.37094593048095703 0.348669290542602539 0.000300000014249235392 0.650318801403045654 0.340754389762878418 -0.678949117660522461
-5.37113380432128906 0.348417758941650391 0.000300000014249235392 0.298551052808761597 -0.304838359355926514 -0.90440070629119873
-0.000300000014249235392 3.05694293975830078 0.268872976303100586 0.991679489612579346 -0.00132986193057149649 -0.128724187612533569
-3.31693387031555176 5.49970006942749023 5.31504058837890625 0.0101634887978434563 0.999922394752502441 -0.00719831325113773346
-5.49970006942749023 3.16307353973388672 1.74506938457489014 -0.991706728935241699 0.0323199108242988586 -0.124391175806522369
-3.71255588531494141 5.49970006942749023 5.41276264190673828 -0.645800530910491943 0.753724098205566406 -0.121826007962226868
-3.71079683303833008 5.49970006942749023 5.41344690322875977 -0.0281717944890260696 0.999597668647766113 -0.00329845701344311237
-0.000300000014249235392 3.17282748222351074 3.39944553375244141 0.992952466011047363 0.0649032220244407654 -0.0991614237427711487
-0.000300000014249235392 2.40602421760559082 4.2255401611328125 0.998035907745361328 0.00409572664648294449 -0.0625092834234237671
-3.47899913787841797 3.25019311904907227 3.3002922534942627 0.0131326774135231972 -0.499745339155197144 -0.866072773933410645
-3.47896552085876465 3.25030255317687988 3.3002922534942627 0.122937142848968506 -0.206127956509590149 -0.970771670341491699
-3.47885036468505859 3.25023818016052246 3.3002922534942627 0.467147529125213623 -0.570341289043426514 -0.675635933876037598
-3.47905588150024414 3.25051212310791016 3.3002922534942627 0.00695246178656816483 0.0680436789989471436 -0.997658014297485352
-0.000300000014249235392 1.92899060249328613 4.30947017669677734 0.997417449951171875 -0.0259242579340934753 -0.0669789984822273254
-3.51772427558898926 5.49970006942749023 4.96717262268066406 0.564685344696044922 0.595901250839233398 -0.570992112159729004
-3.51800966262817383 5.49970006942749023 4.96745061874389648 -0.00395462103188037872 0.999495625495910645 -0.031508374959230423
-0.000300000014249235392 2.33196139335632324 1.3659968376159668 0.991380572319030762 0.00416699983179569244 -0.1309470534324646
-5.49970006942749023 4.62286996841430664 3.39156174659729004 -0.992398560047149658 0.0968098640441894531 -0.0759793221950531006
-2.37114477157592773 5.49970006942749023 0.680381298065185547 -0.49206116795539856 0.770423650741577148 -0.405367910861968994
-3.27267265319824219 4.11176776885986328 3.30029201507568359 0.0913840159773826599 0.255483269691467285 -0.962484896183013916
-3.27267885208129883 4.11166810989379883 3.30029201507568359 0.0741377845406532288 -0.0669953450560569763 -0.994995057582855225
-2.1546480655670166 5.49970006942749023 3.22631740570068359 0.318148881196975708 0.901866614818572998 0.292263299226760864
-2.15471291542053223 5.49970006942749023 3.22611570358276367 0.128303825855255127 0.936658620834350586 -0.325896620750427246
-4.42922401428222656 5.49970006942749023 5.24456977844238281 0.653060317039489746 0.686757028102874756 -0.319181561470031738
-4.42941665649414062 5.49970006942749023 5.24480009078979492 0.283149063587188721 0.91808086633682251 0.277405828237533569
-0.000300000014249235392 1.2765347957611084 5.36317253112792969 0.995782434940338135 -0.0915228128433227539 -0.00639570178464055061
-3.96216392517089844 5.49970006942749023 4.59195327758789062 0.381719678640365601 0.86602705717086792 -0.322935163974761963
-3.96230220794677734 5.49970006942749023 4.59205436706542969 -0.0205057375133037567 0.999137997627258301 -0.036092270165681839
-0.000300000014249235392 4.36633777618408203 5.11348199844360352 0.995038628578186035 0.097956925630569458 -0.0173937436193227768
-3.21036767959594727 5.49970006942749023 3.65469050407409668 0.14171774685382843 0.987671792507171631 0.0664862021803855896
-3.21064162254333496 5.49970006942749023 3.65391683578491211 -0.0663343146443367004 0.826628327369689941 -0.558824896812438965
-5.49970006942749023 2.27740931510925293 4.51735210418701172 -0.997830510139465332 -0.0366611480712890625 -0.0546830892562866211
-0.463204860687255859 -0.933698892593383789 0.000300000014249235392 -0.641215145587921143 -0.200108304619789124 -0.740810155868530273
-0.462985515594482422 -0.933541297912597656 0.000300000014249235392 -0.12934286892414093 0.245173633098602295 -0.960812211036682129
-4.03540372848510742 2.68569684028625488 3.3002924919128418 -0.405814647674560547 0.0511134117841720581 -0.912524938583374023
-4.03460216522216797 2.68596649169921875 3.3002924919128418 -0.0346965417265892029 0.248380228877067566 -0.968040943145751953
-3.77002215385437012 1.28052747249603271 0.000300000014249235392 -0.484326869249343872 -0.316635310649871826 -0.81557917594909668
-0.000300000014249235392 0.917495250701904297 3.78081178665161133 0.996742844581604004 -0.0409844368696212769 -0.0694539397954940796
-3.53508639335632324 4.26645088195800781 3.30029201507568359 0.113128706812858582 -0.281686693429946899 -0.952813982963562012
-3.53512930870056152 4.26656389236450195 3.30029201507568359 -0.0246865786612033844 0.0806708112359046936 -0.996434986591339111
-0.0560393333435058594 3.97157382965087891 0.000300000014249235392 0.527246057987213135 -0.445472389459609985 -0.723578512668609619
-0.0562343597412109375 3.97176289558410645 0.000300000014249235392 0.0783433988690376282 0.0151272919028997421 -0.996811568737030029
-5.49970006942749023 3.13463234901428223 4.00264596939086914 -0.997404694557189941 0.0308024808764457703 -0.0650764256715774536
-5.49970006942749023 3.20398664474487305 5.44604206085205078 -0.997281014919281006 0.0736856386065483093 -0.000971053028479218483
-3.33534741401672363 5.49970006942749023 4.11948776245117188 -0.539702475070953369 0.836820065975189209 0.0919422581791877747
-3.33511734008789062 5.49970006942749023 4.11937427520751953 0.117291368544101715 0.959007084369659424 -0.257969170808792114
-0.000300000014249235392 5.04494857788085938 3.51722621917724609 0.992892622947692871 0.0827309414744377136 -0.0855555161833763123
-3.70091128349304199 5.49970006942749023 4.73974943161010742 -0.0532603338360786438 0.998180091381072998 -0.0282797962427139282
-3.21961069107055664 -0.687630176544189453 0.000300000014249235392 -0.242915689945220947 0.164709508419036865 -0.95596158504486084
-0.000300000014249235392 4.37519073486328125 1.77344274520874023 0.993310093879699707 0.0412511378526687622 -0.107858084142208099
-0.926087141036987305 3.62439155578613281 0.000300000014249235392 -0.301946759223937988 0.425999075174331665 -0.852849841117858887
-0.925967216491699219 3.62424540519714355 0.000300000014249235392 0.0456876084208488464 0.012197406031191349 -0.998881220817565918
-5.49970006942749023 2.52498197555541992 2.8053591251373291 -0.995185434818267822 -0.0228465069085359573 -0.0953094139695167542
-5.17249965667724609 5.49970006942749023 4.20957183837890625 0.0601650886237621307 0.851508378982543945 -0.520877659320831299
-5.17279529571533203 5.49970006942749023 4.21026754379272461 -0.410850226879119873 0.739333748817443848 0.533467471599578857
-5.17267417907714844 5.49970006942749023 4.21001529693603516 -0.149108454585075378 0.981903672218322754 -0.116755016148090363
-5.49970006942749023 0.181265592575073242 0.487739086151123047 -0.989608645439147949 -0.0757355615496635437 -0.122224032878875732
-4.62714385986328125 5.49970006942749023 4.46744251251220703 -0.688704252243041992 0.677518844604492188 0.25817573070526123
-4.62691116333007812 5.49970006942749023 4.46731090545654297 -0.233897507190704346 0.970617353916168213 -0.0565139688551425934
-0.000300000014249235392 0.738226175308227539 2.07083487510681152 0.991879463195800781 -0.0709691718220710754 -0.105538025498390198
-0.928570866584777832 4.51647710800170898 0.000300000014249235392 0.0360697843134403229 -0.278734028339385986 -0.959690690040588379
-0.928702116012573242 4.51664638519287109 0.000300000014249235392 -0.359775960445404053 0.246319591999053955 -0.899937689304351807
-0.928238511085510254 4.51660394668579102 0.000300000014249235392 0.343872815370559692 0.413085430860519409 -0.843274474143981934
-0.928347468376159668 4.51647853851318359 0.000300000014249235392 0.0442955158650875092 0.0704683959484100342 -0.996529936790466309
-2.66882467269897461 5.49970006942749023 5.44472408294677734 0.278713613748550415 0.958907186985015869 -0.0530626066029071808
-2.66900539398193359 5.49970006942749023 5.44476509094238281 0.053712155669927597 0.998555779457092285 -0.00111832038965076208
-4.18709659576416016 2.43476057052612305 5.49970006942749023 0.262997925281524658 -0.248049810528755188 0.932364344596862793
-5.49970006942749023 1.35874772071838379 0.88895416259765625 -0.989984035491943359 -0.057629752904176712 -0.128880992531776428
-0.000300000014249235392 3.42450428009033203 4.47042655944824219 0.997123479843139648 0.0530210621654987335 -0.0541610978543758392
-0.0867140293121337891 4.6149134635925293 0.000300000014249235392 -0.245330199599266052 0.242040097713470459 -0.938738346099853516
-2.73417425155639648 5.49970006942749023 3.94036579132080078 -0.0266939960420131683 0.910730302333831787 0.412137925624847412
-2.73407936096191406 5.49970006942749023 3.94026994705200195 0.273740202188491821 0.953394889831542969 0.12690339982509613
-2.94731950759887695 3.00476169586181641 3.3002924919128418 -0.0652311667799949646 -0.123415328562259674 -0.990208804607391357
-5.49970006942749023 3.71071314811706543 5.29758024215698242 -0.998405694961547852 0.0553726889193058014 -0.0109440991654992104
-1.65795314311981201 3.50169801712036133 0.000300000014249235392 -0.327081263065338135 0.601417720317840576 -0.728913307189941406
-1.65780353546142578 3.50156593322753906 0.000300000014249235392 0.0467397645115852356 0.358880788087844849 -0.932212352752685547
-1.65763688087463379 3.50069499015808105 0.000300000014249235392 0.0428981222212314606 0.389832973480224609 -0.919885814189910889
-1.65763986110687256 3.50056886672973633 0.000300000014249235392 0.0366251394152641296 0.00271140225231647491 -0.999325335025787354
-0.000300000014249235392 2.1875910758972168 3.37766933441162109 0.994594037532806396 0.0236235149204730988 -0.101116128265857697
-5.49970006942749023 2.61538434028625488 4.03587055206298828 -0.996363162994384766 -0.0774374902248382568 -0.0355493910610675812
-3.75808405876159668 5.49970006942749023 3.7751154899597168 -0.2011689692735672 0.976241230964660645 -0.0805232301354408264
-0.000300000014249235392 3.82360243797302246 0.333944797515869141 0.990838885307312012 0.04812602698802948 -0.126182898879051208
-3.09081602096557617 5.49970006942749023 4.48631858825683594 -0.23873746395111084 0.969274818897247314 -0.059251103550195694
-5.49970006942749023 2.53289890289306641 4.35161352157592773 -0.998820781707763672 -0.0074412953108549118 -0.0479743778705596924
-1.40269780158996582 5.49970006942749023 1.50961565971374512 -0.419934660196304321 0.794675946235656738 -0.43834349513053894
-1.40256810188293457 5.49970006942749023 1.50986099243164062 -0.0926839038729667664 0.962184011936187744 0.256147593259811401
-1.40246248245239258 5.49970006942749023 1.50908207893371582 0.213753685355186462 0.904448628425598145 -0.36916390061378479
-3.23988914489746094 -0.114138126373291016 0.000300000014249235392 -0.27877005934715271 -0.528559446334838867 -0.801818013191223145
-3.23976325988769531 -0.113956451416015625 0.000300000014249235392 0.0717322230339050293 -0.0532036200165748596 -0.996003925800323486
-1.24946987628936768 5.49970006942749023 4.76185131072998047 0.073029153048992157 0.996951460838317871 -0.0274677891284227371
-5.49970006942749023 3.8214879035949707 5.05938291549682617 -0.997862160205841064 0.0594732649624347687 -0.0270901545882225037
-2.5642702579498291 5.49970006942749023 2.90286469459533691 -0.5206870436668396 0.738608896732330322 0.428184419870376587
-2.56412100791931152 5.49970006942749023 2.90273523330688477 -0.201082170009613037 0.969035983085632324 0.143300712108612061
-4.15653133392333984 2.49808669090270996 2.27167224884033203 -0.804804861545562744 0.301422297954559326 -0.511305928230285645
-4.15618276596069336 2.49819493293762207 2.27192425727844238 -0.362785607576370239 0.922689735889434814 -0.130499646067619324
-2.87881898880004883 0.578701496124267578 0.000300000014249235392 0.212082237005233765 -0.414256393909454346 -0.885106086730957031
-2.20424509048461914 3.30201435089111328 0.000300000014249235392 0.396551221609115601 0.472210079431533813 -0.787251293659210205
-2.20438838005065918 3.30184555053710938 0.000300000014249235392 0.0263233538717031479 0.0373252294957637787 -0.99895632266998291
-2.60191559791564941 5.49970006942749023 4.36168241500854492 0.555787026882171631 0.829096734523773193 -0.0608222372829914093
-2.60216188430786133 5.49970006942749023 4.36171293258666992 -0.14957079291343689 0.988357424736022949 0.0278958193957805634
-0.635681629180908203 1.01300346851348877 5.49970006942749023 0.5189552903175354 -0.222276061773300171 0.825396060943603516
-2.9312293529510498 -0.374064922332763672 0.000300000014249235392 0.0114923613145947456 -0.144291549921035767 -0.98946845531463623
-5.32996463775634766 5.49970006942749023 5.19240474700927734 -0.0887512415647506714 0.989945828914642334 0.110138051211833954
-1.72698938846588135 5.49970006942749023 4.88673210144042969 -0.229422986507415771 0.960928499698638916 0.154859438538551331
-1.72684121131896973 5.49970006942749023 4.88636398315429688 -0.147129207849502563 0.985169172286987305 -0.0882877632975578308
-1.33405518531799316 5.49970006942749023 2.68041729927062988 -0.333110958337783813 0.932283639907836914 -0.141011446714401245
-1.33392012119293213 5.49970006942749023 2.68053245544433594 0.0901652425527572632 0.970005393028259277 0.225742429494857788
-5.49970006942749023 0.824542045593261719 4.29897546768188477 -0.9960671067237854 -0.0645133629441261292 -0.0607311278581619263
-0.000300000014249235392 -0.185972452163696289 4.84958171844482422 0.991276860237121582 -0.128814205527305603 -0.0278758257627487183
-3.25393247604370117 5.23478555679321289 0.000300000014249235392 0.049427226185798645 0.0162622630596160889 -0.998645305633544922
-3.2540137767791748 5.23492431640625 0.000300000014249235392 0.579531669616699219 0.0266445484012365341 -0.814514040946960449
-3.25428390502929688 5.23497676849365234 0.000300000014249235392 -0.182183101773262024 0.198064371943473816 -0.963109433650970459
-3.32949972152709961 4.05820512771606445 3.30029201507568359 -0.0201398525387048721 0.063298739492893219 -0.997791290283203125
-5.49970006942749023 1.98258638381958008 1.54431796073913574 -0.991795182228088379 0.00750708486884832382 -0.127616435289382935
-2.09879589080810547 1.17900872230529785 2.77632832527160645 0.356660455465316772 0.698978185653686523 -0.61985701322555542
-0.68737483024597168 5.08331108093261719 0.000300000014249235392 0.429759591817855835 0.615341484546661377 -0.660803675651550293
-0.687597513198852539 5.08307313919067383 0.000300000014249235392 -0.0910996720194816589 0.136169910430908203 -0.986487984657287598
-0.000300000014249235392 0.832201242446899414 2.80396556854248047 0.994036316871643066 -0.0420701205730438232 -0.10060669481754303
-0.000300238432828336954 4.22469186782836914 5.27153301239013672 0.828540384769439697 0.331556469202041626 0.451210767030715942
-3.61946940422058105 2.77627372741699219 3.3002924919128418 0.614681363105773926 0.200787663459777832 -0.762791633605957031
-3.62016534805297852 2.775634765625 3.3002924919128418 0.37265700101852417 -0.724338531494140625 -0.580052018165588379
-3.62027835845947266 2.77605199813842773 3.3002924919128418 0.253932178020477295 0.137007266283035278 -0.95746922492980957
-4.28576469421386719 -0.859021663665771484 0.000300000014249235392 -0.0107178883627057076 -0.303315430879592896 -0.952829897403717041
-5.49970006942749023 1.89481139183044434 4.79865646362304688 -0.998176217079162598 -0.0347058661282062531 -0.0493932776153087616
-2.37070369720458984 5.49970006942749023 2.10694694519042969 -0.288588494062423706 0.952560186386108398 -0.0966727137565612793
-2.8050541877746582 1.37572836875915527 1.41919517517089844 0.692060112953186035 0.38374483585357666 -0.611385762691497803
-2.80512690544128418 1.37548518180847168 1.41945052146911621 0.963637173175811768 -0.112558983266353607 -0.242350578308105469
-0.000300000014249235392 3.35036635398864746 4.47479248046875 0.998180389404296875 0.042315848171710968 -0.0429555103182792664
-1.22945904731750488 0.589718341827392578 5.49970006942749023 -0.0519237443804740906 -0.463879704475402832 0.884375154972076416
-1.22930514812469482 0.590027809143066406 5.49970006942749023 0.138325870037078857 -0.159497708082199097 0.977459192276000977
-2.75464344024658203 3.19019174575805664 3.3002924919128418 -0.485114574432373047 0.418862849473953247 -0.767605185508728027
-2.75455975532531738 3.19009923934936523 3.3002924919128418 -0.324861288070678711 0.218666702508926392 -0.920135796070098877
-2.75440263748168945 3.18997335433959961 3.3002924919128418 -0.431772559881210327 0.251596659421920776 -0.866182208061218262
-2.75423336029052734 3.18986821174621582 3.3002924919128418 0.0659986436367034912 -0.0594557933509349823 -0.996046781539916992
-2.75383949279785156 3.1885673999786377 3.3002924919128418 0.216760605573654175 -0.63026273250579834 -0.745509028434753418
-0.000300000014249235392 3.14868021011352539 4.70538187026977539 0.996600806713104248 0.0729822888970375061 -0.0382157936692237854
-2.07455968856811523 5.49970006942749023 4.22571945190429688 0.138119712471961975 0.987840056419372559 0.0713784247636795044
-3.47694659233093262 5.49970006942749023 3.8025367259979248 -0.25493389368057251 0.963930964469909668 -0.0764571428298950195
-2.29015421867370605 5.49970006942749023 3.36032819747924805 -0.598948001861572266 0.775736868381500244 -0.198730260133743286
-2.29006671905517578 5.49970006942749023 3.3602910041809082 -0.409540116786956787 0.852863073348999023 -0.323884934186935425
-0.000300000014249235392 -0.930298805236816406 5.23150300979614258 0.993439197540283203 -0.114077925682067871 -0.00804680865257978439
-2.01479911804199219 3.75691795349121094 0.000300000014249235392 0.123609080910682678 0.147975549101829529 -0.981235921382904053
-2.01479649543762207 3.75683689117431641 0.000300000014249235392 0.132496625185012817 -0.117578819394111633 -0.984184801578521729
-5.49970006942749023 3.58425307273864746 3.98937845230102539 -0.995070815086364746 0.0659430772066116333 -0.0740635022521018982
-1.77480542659759521 5.49970006942749023 4.80744695663452148 -0.0101639339700341225 0.987574100494384766 -0.15682491660118103
-3.31927347183227539 1.8094029426574707 0.000300000014249235392 -0.0315019562840461731 -0.182759776711463928 -0.982652783393859863
-0.000300000014249235392 1.84487676620483398 1.02525627613067627 0.991664886474609375 0.00445661880075931549 -0.128766492009162903
-4.59619998931884766 -0.0240755081176757812 0.000300000014249235392 -0.0900494307279586792 -0.572975516319274902 -0.81461036205291748
-0.943162679672241211 5.49970006942749023 5.07032108306884766 -0.0332438945770263672 0.994981050491333008 -0.0943794697523117065
-0.941920876502990723 5.49970006942749023 5.07063388824462891 0.404700249433517456 0.89561307430267334 -0.184648022055625916
-4.13650035858154297 2.21645450592041016 0.000300000014249235392 -0.0391019284725189209 -0.0246901437640190125 -0.998930096626281738
-0.000300000014249235392 3.19339489936828613 5.18210029602050781 0.999811530113220215 0.0153605490922927856 -0.0118702491745352745
-1.07639765739440918 5.49970006942749023 4.33098316192626953 -0.221895545721054077 0.420608460903167725 -0.879687905311584473
-1.07614743709564209 5.49970006942749023 4.33141422271728516 0.248789191246032715 0.81056523323059082 -0.530177175998687744
-1.07640218734741211 5.49970006942749023 4.33194208145141602 0.0565156564116477966 0.988530397415161133 -0.140048190951347351
-5.49970006942749023 4.85672283172607422 3.63872337341308594 -0.991515278816223145 0.100556895136833191 -0.0823750719428062439
-4.17880010604858398 2.49117875099182129 2.02848410606384277 -0.849943935871124268 0.331172049045562744 0.409780830144882202
-4.17843723297119141 2.49129128456115723 2.02826118469238281 -0.286575525999069214 0.957805871963500977 -0.021960671991109848
-4.17850780487060547 2.49126935005187988 2.02808380126953125 -0.333239167928695679 0.931389689445495605 -0.146508753299713135
-3.03671002388000488 3.56279969215393066 3.3002922534942627 0.476959377527236938 0.610275208950042725 -0.632513999938964844
-3.03693056106567383 3.56250309944152832 3.3002922534942627 0.0191212724894285202 -0.0238346625119447708 -0.999532997608184814
-3.12626934051513672 3.22895073890686035 3.3002924919128418 -0.113456264138221741 0.234548807144165039 -0.965460777282714844
-3.03707289695739746 5.49970006942749023 5.10120487213134766 -0.0309942774474620819 0.997268557548522949 0.0670422911643981934
-3.03725099563598633 5.49970006942749023 5.10139179229736328 -0.147193267941474915 0.971415996551513672 0.186239391565322876
-0.000300000014249235392 3.80871891975402832 2.96210432052612305 0.992196083068847656 0.0353979766368865967 -0.119556643068790436
-5.49970006942749023 0.213480710983276367 4.94243335723876953 -0.995348811149597168 -0.0931489616632461548 -0.0245748180896043777
-0.718759775161743164 5.49970006942749023 5.43790197372436523 0.295575499534606934 0.955224871635437012 -0.0134345237165689468
-2.07830905914306641 4.84919166564941406 5.49970006942749023 -0.234284728765487671 0.0768992751836776733 0.969121813774108887
-2.07776498794555664 4.84934425354003906 5.49970006942749023 0.662158071994781494 0.339577049016952515 0.668007612228393555
-2.0780184268951416 4.84923171997070312 5.49970006942749023 0.143450886011123657 0.13187764585018158 0.980831265449523926
-0.633530855178833008 5.49970006942749023 5.04269027709960938 -0.855326235294342041 0.150480836629867554 0.495754480361938477
-0.632075786590576172 5.49970006942749023 5.04167985916137695 -0.638803660869598389 0.767241835594177246 -0.0571819134056568146
-0.631181478500366211 5.49970006942749023 5.04179859161376953 -0.148151636123657227 0.988205194473266602 0.0387497767806053162
-0.631105184555053711 5.49970006942749023 5.0417933464050293 -0.575321018695831299 0.795598626136779785 0.189811587333679199
-0.630864858627319336 5.49970006942749023 5.04171562194824219 0.0775434225797653198 0.996776103973388672 -0.0205981768667697906
-3.8189239501953125 2.83439779281616211 3.3002924919128418 -0.0316324867308139801 0.0344354882836341858 -0.998906135559082031
-0.000300000014249235392 1.89625692367553711 5.32356643676757812 0.999972343444824219 0.00327856326475739479 -0.0066626458428800106
-2.02426934242248535 5.49970006942749023 2.89435887336730957 0.010771431028842926 0.976769685745239258 -0.21402093768119812
-2.02421379089355469 5.49970006942749023 2.8945307731628418 0.0511564314365386963 0.993375957012176514 -0.102893978357315063
-5.33955907821655273 0.118432283401489258 0.000300000014249235392 -0.0612029246985912323 -0.148729771375656128 -0.986982047557830811
-5.33956146240234375 0.118459939956665039 0.000300000014249235392 -0.0702243447303771973 -0.0586199834942817688 -0.995807290077209473
-3.03424692153930664 5.49970006942749023 5.21753454208374023 -0.0126382000744342804 0.919251620769500732 -0.393467456102371216
-3.03423976898193359 5.49970006942749023 5.21762514114379883 0.00989617034792900085 0.992168128490447998 -0.124516315758228302
-0.258163928985595703 5.49970006942749023 2.84972763061523438 0.543966770172119141 0.714570105075836182 -0.439874708652496338
-0.258297920227050781 5.49970006942749023 2.84969305992126465 0.24623967707157135 0.78258204460144043 -0.571779131889343262
-0.258188247680664062 5.49970006942749023 2.85047197341918945 0.712487578392028809 0.697388112545013428 0.0775317922234535217
-0.25839996337890625 5.49970006942749023 2.85040521621704102 0.299357861280441284 0.948327064514160156 -0.105169706046581268
-3.50515222549438477 2.7001502513885498 1.54875504970550537 -0.305510997772216797 0.940627634525299072 -0.147927716374397278
-2.21565937995910645 5.49970006942749023 3.26673173904418945 0.148564413189888 0.982902407646179199 -0.108772642910480499
-1.06424570083618164 5.49970006942749023 1.61151587963104248 -0.00896108523011207581 0.96382594108581543 -0.266381502151489258
-1.06392252445220947 5.49970006942749023 1.61148273944854736 0.119339354336261749 0.87041628360748291 -0.477633237838745117
-2.67127895355224609 5.49970006942749023 4.55508518218994141 -0.101444907486438751 0.878412067890167236 -0.467012971639633179
-3.09375596046447754 1.72160184383392334 0.000300000014249235392 -0.0284045375883579254 -0.0204007476568222046 -0.999388277530670166
-3.13048481941223145 0.143171310424804688 0.000300000014249235392 -0.904382944107055664 -0.00253232498653233051 -0.426714152097702026
-3.12991237640380859 0.143146038055419922 0.000300000014249235392 -0.205432817339897156 -0.0874447450041770935 -0.974756717681884766
-1.73108839988708496 5.49970006942749023 5.05775260925292969 -0.817484498023986816 0.167202085256576538 0.551146507263183594
-1.72975814342498779 5.49970006942749023 5.05695915222167969 -0.355268210172653198 0.782977581024169922 0.51061779260635376
-1.72936201095581055 5.49970006942749023 5.05633449554443359 -0.129795312881469727 0.985046923160552979 0.113294988870620728
-1.91581630706787109 5.49970006942749023 4.57429122924804688 -0.012780102901160717 0.986384391784667969 -0.163958266377449036
-1.91586995124816895 5.49970006942749023 4.57475614547729492 -0.560333192348480225 0.827054619789123535 -0.0448024161159992218
-1.91566085815429688 5.49970006942749023 4.57473278045654297 0.0199055466800928116 0.991252422332763672 -0.130469024181365967
-3.19365072250366211 5.49970006942749023 3.99196910858154297 -0.353483885526657104 0.795606791973114014 -0.491994947195053101
-3.1934816837310791 5.49970006942749023 3.99207544326782227 0.11478770524263382 0.960424423217773438 -0.253788471221923828
-3.19406390190124512 5.49970006942749023 3.99181318283081055 -0.565085411071777344 0.595182538032531738 -0.571345984935760498
-3.19384002685546875 5.49970006942749023 3.9919281005859375 -0.172600433230400085 0.853200197219848633 -0.492197662591934204
-3.19357061386108398 5.49970006942749023 3.99247121810913086 0.297339022159576416 0.927448391914367676 0.226779356598854065
-3.19366812705993652 5.49970006942749023 3.99237680435180664 -0.00493945647031068802 0.997546374797821045 -0.0698337256908416748
-0.000300000014249235392 3.50195932388305664 1.80113756656646729 0.993263602256774902 0.00518687861040234566 -0.115759871900081635
-2.91461515426635742 3.82824349403381348 2.77051520347595215 -0.9621010422706604 -0.234264969825744629 -0.139575809240341187
-3.3047788143157959 3.32994771003723145 3.3002922534942627 -0.678601264953613281 -0.136070400476455688 -0.721793055534362793
-3.3045189380645752 3.33000612258911133 3.3002922534942627 -0.0744389891624450684 0.00655950978398323059 -0.997203946113586426
-4.1433262825012207 5.49970006942749023 3.51704645156860352 0.167242065072059631 0.883691191673278809 -0.437172532081604004
-0.000300000014249235392 3.63284802436828613 4.24610519409179688 0.996328532695770264 0.0639894455671310425 -0.0568744465708732605
-5.49970006942749023 1.9223473072052002 2.02747344970703125 -0.99408113956451416 -0.0133242085576057434 -0.107819348573684692
-3.81237888336181641 -0.447916030883789062 0.000300000014249235392 0.184168100357055664 -0.0700953155755996704 -0.980392098426818848
-3.81255841255187988 -0.447784900665283203 0.000299761595670133829 0.697861671447753906 0.224076360464096069 -0.680278480052947998
-3.81286764144897461 -0.447906255722045898 0.000300000014249235392 -0.00450152670964598656 -0.0742872133851051331 -0.99722665548324585
-0.000300000014249235392 -0.394967794418334961 3.89097166061401367 0.991308808326721191 -0.116010420024394989 -0.0620356574654579163
-0.000300000014249235392 4.8945465087890625 4.34446382522583008 0.995237410068511963 0.078294411301612854 -0.058071475476026535
-0.159530878067016602 3.29306602478027344 0.000300000014249235392 -0.180616945028305054 0.520175695419311523 -0.834742367267608643
-0.159444808959960938 3.29288959503173828 0.000300000014249235392 0.0703582838177680969 0.034845445305109024 -0.996912956237792969
-3.36784219741821289 5.49970006942749023 4.22289085388183594 -0.562003433704376221 0.826414048671722412 0.0345237143337726593
-3.60421991348266602 1.46867477893829346 0.000300000014249235392 -0.152931109070777893 -0.373492926359176636 -0.91493988037109375
-0.000300000014249235392 -0.441970348358154297 5.03042221069335938 0.992887139320373535 -0.118274323642253876 -0.0136453863233327866
-5.25326013565063477 0.610825300216674805 0.000300000014249235392 -0.172369629144668579 -0.313137084245681763 -0.933934569358825684
-5.25314664840698242 0.611050128936767578 0.000300000014249235392 -0.0397807583212852478 -0.0473158694803714752 -0.998087525367736816
-2.87711262702941895 5.49970006942749023 5.18586635589599609 0.155557557940483093 0.899875164031982422 0.407463520765304565
-2.87718701362609863 5.49970006942749023 5.1857757568359375 -0.0747655853629112244 0.985871732234954834 0.149889692664146423
-2.87684750556945801 5.49970006942749023 5.18500041961669922 0.222883805632591248 0.885595381259918213 -0.407484441995620728
-3.75594162940979004 1.40595972537994385 0.000300000014249235392 -0.805358648300170898 0.310284405946731567 -0.505095005035400391
-3.75554108619689941 1.40574097633361816 0.000300000014249235392 -0.24919445812702179 -0.110510878264904022 -0.962127566337585449
-3.7555851936340332 1.40475225448608398 0.000299761595670133829 0.255748331546783447 -0.706763267517089844 -0.659604668617248535
-3.75574779510498047 1.40500044822692871 0.000300000014249235392 -0.147743120789527893 -0.234832793474197388 -0.96074211597442627
-4.26582956314086914 5.49970006942749023 5.35219573974609375 -0.206160053610801697 0.898669719696044922 0.387157201766967773
-4.26578664779663086 5.49970006942749023 5.35206508636474609 -0.0861182063817977905 0.996274709701538086 -0.00449671363458037376
-1.55133092403411865 3.1556847095489502 0.000300000014249235392 0.0584653504192829132 0.424462646245956421 -0.903555870056152344
-1.55133545398712158 3.15555167198181152 0.000300000014249235392 0.049416959285736084 0.0264461934566497803 -0.998428046703338623
-2.41555476188659668 5.49970006942749023 3.38414382934570312 -0.4084586501121521 0.892734825611114502 -0.190226182341575623
-2.41542553901672363 5.49970006942749023 3.38421869277954102 -0.0268956311047077179 0.998977780342102051 0.0363312959671020508
-5.49970006942749023 -0.969283342361450195 2.15282702445983887 -0.992370247840881348 -0.0882384926080703735 -0.0861113220453262329
-1.69899845123291016 5.49970006942749023 3.36511015892028809 -0.092804446816444397 0.982268095016479492 0.162901028990745544
-2.56027579307556152 5.49970006942749023 3.50135254859924316 0.0155454203486442566 0.877269327640533447 -0.479746639728546143
-2.56027722358703613 5.49970006942749023 3.50148773193359375 0.0124861262738704681 0.995289087295532227 -0.0961444452404975891
-3.16901302337646484 4.08027505874633789 3.30029201507568359 -0.210720241069793701 -0.142671748995780945 -0.967078924179077148
-3.16879701614379883 4.08039569854736328 3.30029201507568359 0.0707252398133277893 0.012379080057144165 -0.997418999671936035
-1.55848538875579834 5.49970006942749023 3.11213564872741699 -0.0161298234015703201 0.996994853019714355 0.0757693052291870117
-2.98480057716369629 5.49970006942749023 1.27798843383789062 0.0144779207184910774 0.991850852966308594 -0.126578450202941895
-3.48602628707885742 3.23760056495666504 5.49970006942749023 0.31198650598526001 0.137956395745277405 0.940017223358154297
-3.48626089096069336 3.23747754096984863 5.49970006942749023 0.0287349484860897064 -0.0138102266937494278 0.999491631984710693
-3.21918964385986328 5.49970006942749023 5.19025373458862305 -0.39392465353012085 0.555648267269134521 -0.732173681259155273
-3.21901082992553711 5.49970006942749023 5.19047832489013672 -0.0976187214255332947 0.865095257759094238 -0.492017030715942383
-3.21887063980102539 5.49970006942749023 5.19097328186035156 0.16945202648639679 0.983130037784576416 0.0688562840223312378
-3.21892738342285156 5.49970006942749023 5.19094657897949219 -0.01678507961332798 0.999667584896087646 -0.0195683930069208145
-4.90484142303466797 1.8878166675567627 0.000300000014249235392 0.916042029857635498 0.148459941148757935 -0.372594445943832397
-4.90540552139282227 1.88786911964416504 0.000300000014249235392 0.447554588317871094 0.444605618715286255 -0.775899946689605713
-4.906005859375 1.88747239112854004 0.000300000014249235392 0.0673252344131469727 0.314034581184387207 -0.947021424770355225
-4.90590763092041016 1.8871009349822998 0.000300000014249235392 0.146744072437286377 0.104830339550971985 -0.983603894710540771
-4.90630722045898438 1.88661742210388184 0.000300000014249235392 0.0607781484723091125 -0.391831934452056885 -0.918027102947235107
-4.90629959106445312 1.88670539855957031 0.000300000014249235392 0.0885867998003959656 -0.131795763969421387 -0.987310647964477539
