ply
format ascii 1.0
element vertex 343
property float x
property float y
property float z
property float nx
property float ny
property float nz
end_header
-0.478481531143188477 3.51432228088378906 5.49700069427490234 0.487924098968505859 -0.0619023628532886505 0.870688378810882568
-5.49700021743774414 5.26744318008422852 4.42805051803588867 -0.956163942813873291 -0.18696536123752594 0.225376158952713013
-1.92476487159729004 1.76719677448272705 3.04214024543762207 0.171384811401367188 -0.191597640514373779 -0.966394126415252686
-5.49700021743774414 0.694910287857055664 4.41416645050048828 -0.191626936197280884 -0.40276944637298584 -0.895017266273498535
-1.7085801362991333 1.88197541236877441 3.00456595420837402 -0.108749069273471832 -0.263229668140411377 -0.958584249019622803
-2.13065433502197266 2.12501907348632812 2.78972148895263672 0.425563991069793701 -0.568014264106750488 -0.704453766345977783
-3.76306581497192383 4.35116291046142578 0.251702427864074707 -0.310186833143234253 -0.950650870800018311 -0.00686100777238607407
-4.55309438705444336 4.80042171478271484 0.00300000002607703209 0.219534039497375488 -0.68193972110748291 -0.697684049606323242
-0.00299976160749793053 1.40547966957092285 2.89635133743286133 0.613556444644927979 -0.652171909809112549 -0.44521939754486084
-4.46583366394042969 3.24863004684448242 1.62192559242248535 0.393958121538162231 -0.228796660900115967 -0.890196084976196289
-2.44462013244628906 1.32867789268493652 2.41514968872070312 0.936471819877624512 0.149270206689834595 -0.317393958568572998
-0.00300023844465613365 4.58614253997802734 3.36312007904052734 0.887167870998382568 0.353134065866470337 0.29703482985496521
-3.84680843353271484 1.79925501346588135 5.49700021743774414 0.213956654071807861 -0.753759264945983887 0.621344864368438721
-5.49700021743774414 2.46859526634216309 0.955942153930664062 -0.345174878835678101 0.900629937648773193 0.264045536518096924
-2.17819857597351074 5.49700021743774414 3.0899050235748291 -0.0442359931766986847 0.487096160650253296 0.872227311134338379
-5.48656463623046875 2.94736433029174805 5.49700021743774414 0.191123992204666138 0.704958736896514893 0.68301159143447876
-5.23163032531738281 0.859292984008789062 0.00300000002607703209 0.678409814834594727 -0.1484537273645401 -0.719528734683990479
-5.49700021743774414 3.59666347503662109 5.47916793823242188 -0.930760800838470459 0.0995093062520027161 -0.351826936006546021
-4.84213352203369141 5.34503412246704102 5.49700021743774414 -0.327953368425369263 -0.607159614562988281 0.723742902278900146
-2.46036338806152344 1.36400890350341797 2.2765357494354248 0.970562756061553955 0.238658159971237183 -0.032407611608505249
-5.49700021743774414 -0.782759189605712891 5.49221229553222656 -0.752449393272399902 0.320121437311172485 -0.57562333345413208
-5.49700021743774414 5.06345367431640625 2.32643294334411621 -0.875163853168487549 -0.124329179525375366 -0.467579364776611328
-2.43315625190734863 1.89473176002502441 2.6382756233215332 0.791002511978149414 -0.289861142635345459 -0.53879082202911377
-3.42533087730407715 -0.0668052136898040771 0.927834570407867432 0.839709877967834473 0.542991995811462402 0.00685662031173706055
-0.00300000002607703209 5.14674949645996094 3.66193079948425293 0.994258463382720947 -0.0932391956448554993 -0.0525033213198184967
-2.43898296356201172 1.8025585412979126 2.68367457389831543 0.793022453784942627 -0.218503177165985107 -0.568657875061035156
-5.49700021743774414 3.12989044189453125 4.17923069000244141 -0.453017145395278931 -0.491906195878982544 0.743507802486419678
-1.35011482238769531 2.4049069881439209 0.79947054386138916 0.0197132620960474014 -0.823208451271057129 0.567396879196166992
-0.574664115905761719 0.982847690582275391 0.00300023844465613365 -0.198751956224441528 -0.0133408606052398682 -0.97995913028717041
-0.00300000002607703209 4.88084506988525391 2.89840817451477051 0.809138774871826172 0.407721847295761108 -0.423151642084121704
-3.87612366676330566 5.49699974060058594 2.89212203025817871 0.304050981998443604 0.805252373218536377 -0.509039878845214844
-0.00300000002607703209 2.23055744171142578 4.18227958679199219 0.674459397792816162 -0.675323009490966797 -0.298401296138763428
-3.70998740196228027 4.36762857437133789 0.93012702465057373 0.515162646770477295 -0.636091649532318115 0.574451804161071777
-1.86812615394592285 2.03182721138000488 2.94731807708740234 0.0896629244089126587 -0.719458639621734619 -0.688723385334014893
-5.49700021743774414 4.53156471252441406 5.46847248077392578 -0.748156189918518066 -0.330229490995407104 -0.575509130954742432
-2.03930950164794922 1.46919035911560059 2.99560022354125977 0.235894709825515747 0.195303931832313538 -0.951950669288635254
-2.33136653900146484 2.13503718376159668 2.49739408493041992 0.193778857588768005 -0.604002296924591064 -0.77306598424911499
-5.49700021743774414 -0.356571435928344727 3.02982401847839355 -0.307879626750946045 -0.834142923355102539 0.457619667053222656
-3.63135313987731934 4.39202165603637695 2.14295339584350586 0.86077040433883667 -0.506117641925811768 0.0540296956896781921
-2.33406591415405273 1.33714115619659424 2.72086477279663086 0.632424771785736084 0.420159697532653809 -0.650772452354431152
-0.00300000002607703209 0.369218826293945312 2.87603759765625 0.733656644821166992 -0.289836615324020386 0.614607751369476318
-4.80282020568847656 4.96366214752197266 0.00300023844465613365 0.186557114124298096 0.688057780265808105 -0.701265275478363037
-5.49700021743774414 2.22263097763061523 5.47188472747802734 -0.892912030220031738 -0.444814205169677734 -0.0696310922503471375
-3.18308019638061523 5.49700021743774414 5.03384590148925781 0.650828897953033447 0.169948771595954895 0.739958882331848145
-2.24308300018310547 5.49700021743774414 5.36034488677978516 0.192304626107215881 0.844153225421905518 -0.500424027442932129
-5.49700021743774414 4.68116140365600586 5.17424678802490234 -0.530488133430480957 0.786940991878509521 -0.315128982067108154
-0.00300000002607703209 -0.383813858032226562 3.1979067325592041 0.88782113790512085 -0.290305048227310181 -0.357066631317138672
-4.52484464645385742 4.1148524284362793 3.28402113914489746 0.345391809940338135 -0.703616797924041748 -0.620989441871643066
-0.720346450805664062 1.59276127815246582 0.00300000002607703209 -0.18278561532497406 -0.490181624889373779 -0.852239072322845459
-0.00300023844465613365 4.07732534408569336 3.64117264747619629 0.785456299781799316 -0.276405036449432373 -0.553767740726470947
-5.49700021743774414 3.79316902160644531 4.15935516357421875 -0.359529793262481689 0.6937142014503479 -0.624098479747772217
-3.9673924446105957 5.49700021743774414 0.629410982131958008 -0.275056391954421997 0.960712075233459473 0.0370994359254837036
-0.00300000002607703209 2.25010442733764648 5.20764398574829102 0.992112398147583008 0.0608220547437667847 -0.109606921672821045
-3.82027983665466309 0.766092956066131592 0.935409843921661377 0.536192119121551514 -0.321091890335083008 -0.780639410018920898
-5.49700021743774414 1.74599134922027588 0.106108665466308594 -0.973076760768890381 0.101088955998420715 0.207129538059234619
-5.49700021743774414 3.27141094207763672 3.81946182250976562 -0.499014139175415039 0.253312230110168457 -0.828744709491729736
-5.49700021743774414 1.73510289192199707 5.49444913864135742 -0.963750660419464111 -0.237356275320053101 -0.121846720576286316
-1.06154370307922363 1.43660414218902588 0.429322868585586548 -0.857143640518188477 -0.328566610813140869 0.396672159433364868
-1.78819215297698975 1.97267305850982666 2.97863197326660156 0.0226955562829971313 -0.382941275835037231 -0.923493862152099609
-0.346775054931640625 5.49700021743774414 1.19331562519073486 0.603657662868499756 0.640772163867950439 0.474350512027740479
-2.44225001335144043 5.49700021743774414 4.87471675872802734 -0.477678090333938599 0.652525603771209717 -0.588246524333953857
-2.17634701728820801 1.57591772079467773 2.96133017539978027 0.421600997447967529 0.0879571810364723206 -0.90250551700592041
-0.00300023844465613365 3.75399303436279297 3.07596802711486816 0.675535321235656738 0.716946780681610107 0.172163069248199463
-2.48763084411621094 2.34388351440429688 1.65299630165100098 0.381305158138275146 -0.260472565889358521 -0.886995196342468262
-3.40850353240966797 3.58463287353515625 3.30299234390258789 0.661431670188903809 -0.35676652193069458 -0.659716367721557617
-3.8089752197265625 4.02050304412841797 5.49700021743774414 0.935817539691925049 0.29104343056678772 0.19884490966796875
-5.49700021743774414 1.73323607444763184 3.98473644256591797 -0.489550232887268066 -0.745276749134063721 -0.452662229537963867
-2.41165971755981445 2.02943849563598633 2.50846290588378906 0.77971881628036499 -0.507429063320159912 -0.366816461086273193
-1.87732696533203125 5.49700021743774414 3.88805007934570312 0.561633408069610596 0.782229006290435791 -0.269602775573730469
-0.193636417388916016 3.70827484130859375 0.00300000002607703209 0.586767911911010742 -0.239207237958908081 -0.773617029190063477
-5.49700021743774414 4.7117609977722168 5.12968540191650391 -0.932785451412200928 -0.275736331939697266 -0.232122421264648438
-5.35259199142456055 2.2693779468536377 5.49700021743774414 0.26372113823890686 0.427309691905975342 0.864787578582763672
-0.00300000002607703209 5.26372623443603516 5.22339916229248047 0.972406268119812012 -0.0421835482120513916 -0.229448527097702026
-5.49700021743774414 0.856689214706420898 1.87307167053222656 -0.405428051948547363 -0.370947033166885376 -0.835479736328125
-5.41596078872680664 1.37628006935119629 5.49700021743774414 0.48476371169090271 -0.608581304550170898 0.628198146820068359
-5.49700021743774414 2.23551011085510254 5.0696873664855957 -0.546041429042816162 -0.751253783702850342 0.37075120210647583
-5.49700021743774414 2.18669891357421875 5.48699474334716797 -0.952737510204315186 -0.284505546092987061 -0.106526345014572144
-3.2257685661315918 2.78399085998535156 1.3409048318862915 -0.265013158321380615 0.117806538939476013 0.957021236419677734
-5.49700021743774414 0.938362240791320801 0.322541236877441406 -0.294096499681472778 0.928505182266235352 0.226683497428894043
-5.49700021743774414 -0.216104507446289062 4.45637607574462891 -0.370124876499176025 -0.923752188682556152 0.0984351634979248047
-0.00300000002607703209 3.23287630081176758 3.77826952934265137 0.830889582633972168 -0.377835780382156372 -0.408488214015960693
-5.49700021743774414 4.86644601821899414 5.42964744567871094 -0.173735648393630981 0.849540472030639648 -0.498093247413635254
-1.73130643367767334 1.27680301666259766 5.49700021743774414 0.537635147571563721 -0.593707740306854248 0.598715007305145264
-3.42523193359375 2.76257038116455078 3.30299258232116699 0.173390805721282959 -0.905009329319000244 -0.388450682163238525
-4.27683830261230469 5.07075214385986328 5.49700021743774414 0.194221988320350647 -0.258564144372940063 0.946267604827880859
-0.00300000002607703209 5.05030250549316406 4.88215541839599609 0.839076459407806396 0.504431426525115967 -0.203714579343795776
-5.49700021743774414 1.99452400207519531 2.24261212348937988 -0.53400188684463501 -0.31226736307144165 -0.785704195499420166
-5.04860019683837891 4.38784027099609375 0.00300000002607703209 -0.78790581226348877 0.0828297883272171021 -0.610199689865112305
-1.35633134841918945 3.40005779266357422 5.49700021743774414 -0.196287557482719421 -0.711049497127532959 0.675188720226287842
-2.40365386009216309 1.47659647464752197 2.71923232078552246 0.774165868759155273 0.153844058513641357 -0.614002704620361328
-3.50791478157043457 3.52779436111450195 3.30299258232116699 -0.65273749828338623 -0.271752297878265381 -0.707166492938995361
-5.25715446472167969 5.49700021743774414 4.43140697479248047 0.164782151579856873 0.598492205142974854 -0.783998668193817139
-2.02780699729919434 1.91165804862976074 2.98115110397338867 0.324902534484863281 -0.342538923025131226 -0.881535828113555908
-1.98859500885009766 1.02112507820129395 2.56395483016967773 0.249232828617095947 0.851431369781494141 -0.461462557315826416
-0.499889373779296875 5.49700021743774414 0.155930995941162109 0.482830464839935303 0.777224957942962646 -0.403479993343353271
-0.00300023844465613365 0.525005578994750977 4.90541887283325195 0.712232887744903564 -0.594982564449310303 0.37245139479637146
-5.41297149658203125 5.49700021743774414 4.03524446487426758 0.677034974098205566 0.368230462074279785 0.637204825878143311
-3.22850251197814941 3.22977352142333984 3.30299258232116699 0.583596706390380859 -0.312201440334320068 -0.74963003396987915
-0.00300000002607703209 4.02582836151123047 5.15389728546142578 0.426972359418869019 -0.766391634941101074 -0.479935884475708008
-0.00299976160749793053 3.61317873001098633 5.45097827911376953 0.919868886470794678 0.391980350017547607 -0.0138807548210024834
-3.90476751327514648 -0.490224957466125488 0.90227973461151123 0.20934787392616272 -0.706173241138458252 0.676382124423980713
-5.49700021743774414 0.434193134307861328 5.19724845886230469 -0.507849633693695068 -0.85575258731842041 -0.0988752171397209167
-4.30647850036621094 3.1178128719329834 3.79920625686645508 0.321250885725021362 0.0919282510876655579 -0.942521631717681885
-2.48541784286499023 2.45627450942993164 0.793355822563171387 0.442441970109939575 -0.0284462310373783112 -0.896345853805541992
-0.242399692535400391 3.4279780387878418 0.00300047686323523521 0.241502761840820312 -0.13427676260471344 -0.961065113544464111
-1.59391665458679199 5.49700021743774414 4.32620668411254883 0.749449431896209717 0.657484352588653564 -0.0777165442705154419
-4.36143016815185547 0.303121328353881836 0.00300000002607703209 0.284330040216445923 -0.920779824256896973 -0.267059862613677979
-3.33323550224304199 4.37923860549926758 3.30299210548400879 0.421383947134017944 0.525521337985992432 -0.739095687866210938
-5.47593355178833008 3.06782031059265137 5.49699974060058594 -0.197471573948860168 0.0138205159455537796 0.980211198329925537
-2.16739821434020996 2.05389881134033203 2.83228325843811035 0.412295758724212646 -0.491355776786804199 -0.767190814018249512
-0.00300000002607703209 5.31221771240234375 5.11416101455688477 0.916680514812469482 -0.352215975522994995 0.188787505030632019
-1.85269641876220703 1.68806147575378418 3.05497241020202637 0.0788066238164901733 -0.0701124221086502075 -0.99442136287689209
-1.88979053497314453 2.15041708946228027 2.8515925407409668 0.0960583016276359558 -0.642087280750274658 -0.760589718818664551
-0.853892207145690918 5.49700021743774414 5.49522924423217773 -0.126050233840942383 0.982147336006164551 -0.139634892344474792
-0.00299952318891882896 2.47970056533813477 3.62970685958862305 0.923163890838623047 0.203234434127807617 -0.326288491487503052
-1.67691051959991455 2.2384641170501709 2.00812244415283203 -0.296715199947357178 -0.63810652494430542 0.710478901863098145
-0.264567136764526367 0.83661341667175293 0.00300000002607703209 -0.0641371533274650574 0.153497666120529175 -0.986065387725830078
-0.00300047686323523521 3.03435015678405762 4.7335200309753418 0.893246829509735107 -0.416340857744216919 0.169618487358093262
-0.722173452377319336 4.38827228546142578 5.49700021743774414 0.674629032611846924 -0.420695722103118896 0.606540024280548096
-4.37267780303955078 2.94833087921142578 3.0607144832611084 0.893181562423706055 0.232476323843002319 0.384943485260009766
-2.01750826835632324 1.5057222843170166 3.01225376129150391 0.279528498649597168 0.190290898084640503 -0.941091477870941162
-5.01430511474609375 0.995578646659851074 0.00300000002607703209 0.902184247970581055 0.16315518319606781 -0.399304389953613281
-5.41648149490356445 5.49700021743774414 2.65525174140930176 0.321128696203231812 0.843322694301605225 0.430909782648086548
-5.49700021743774414 -0.0550813674926757812 5.47096061706542969 -0.923148036003112793 0.360237836837768555 -0.134262502193450928
-2.48486971855163574 1.41319918632507324 2.41285324096679688 0.938704192638397217 0.153635561466217041 -0.308594584465026855
-0.73179316520690918 5.49700021743774414 5.17987966537475586 -0.313375294208526611 0.925238609313964844 -0.213844433426856995
-3.59847402572631836 1.47877073287963867 5.49700021743774414 -0.501396000385284424 -0.0576542392373085022 0.863294839859008789
-5.49700021743774414 4.32947063446044922 3.23879814147949219 -0.978405594825744629 0.205891072750091553 0.0182038974016904831
-2.65490388870239258 2.96107840538024902 1.84484076499938965 -0.0118417888879776001 0.661165416240692139 0.750146746635437012
-0.00300000002607703209 5.35885715484619141 2.36989641189575195 0.853620707988739014 -0.50728529691696167 -0.11829308420419693
-3.54171276092529297 -0.914636135101318359 5.49700021743774414 0.280570447444915771 -0.530972599983215332 0.79959261417388916
-5.49700021743774414 2.73127222061157227 5.2333526611328125 -0.829829096794128418 -0.542221009731292725 -0.131833389401435852
-0.00300000002607703209 4.72332477569580078 0.796595573425292969 0.619354963302612305 -0.599680006504058838 0.506737887859344482
-2.62389731407165527 3.79986739158630371 5.49700021743774414 0.762992322444915771 -0.461452722549438477 0.4526633620262146
-3.86651706695556641 -0.483227968215942383 0.886712789535522461 0.468190163373947144 -0.794388413429260254 0.386969000101089478
-1.92162346839904785 1.33883559703826904 2.96635913848876953 0.11943073570728302 0.353243440389633179 -0.927876830101013184
-4.23984146118164062 0.805881261825561523 5.49700021743774414 0.00891868863254785538 -0.578066051006317139 0.815941274166107178
-5.49700021743774414 5.19628620147705078 4.174072265625 -0.995566189289093018 -0.0896193608641624451 0.0285718943923711777
-1.35010111331939697 1.38752102851867676 5.49700021743774414 0.187639251351356506 -0.109887443482875824 0.976071834564208984
-3.18355560302734375 2.68527841567993164 0.00300000002607703209 0.509289979934692383 -0.28335261344909668 -0.812610030174255371
-2.13903331756591797 2.75657916069030762 0.00300000002607703209 -0.477719426155090332 0.21404460072517395 -0.852038204669952393
-2.78205132484436035 1.46225249767303467 0.542621493339538574 0.8978729248046875 -0.334228307008743286 -0.286558210849761963
-3.14249229431152344 5.49700021743774414 0.230605602264404297 0.934936940670013428 0.334488809108734131 0.118364676833152771
-0.00300000002607703209 -0.0847749710083007812 0.0715498924255371094 0.463206768035888672 0.11699318140745163 0.878494203090667725
-4.194854736328125 2.48337125778198242 0.44288170337677002 0.59546893835067749 0.782453536987304688 0.182162448763847351
-2.07899332046508789 5.49700021743774414 2.13672876358032227 0.426640838384628296 0.399734586477279663 -0.811289012432098389
-4.63483476638793945 5.49700021743774414 4.69037914276123047 -0.319899111986160278 0.851890921592712402 0.414665073156356812
-2.95545721054077148 5.49700021743774414 3.29487848281860352 -0.0405703894793987274 0.613181889057159424 0.78889930248260498
-0.296578645706176758 2.08876609802246094 5.49700021743774414 0.0770461484789848328 -0.268281400203704834 0.960254669189453125
-5.46079063415527344 -0.427234411239624023 0.00300000002607703209 0.484419643878936768 -0.640213906764984131 -0.596207797527313232
-5.49699974060058594 2.96802425384521484 4.96816825866699219 -0.795174658298492432 0.600766122341156006 -0.0823244303464889526
-2.11072635650634766 1.83260595798492432 2.97731685638427734 0.386423259973526001 -0.205720469355583191 -0.899086296558380127
-4.96310520172119141 1.96903932094573975 0.00300000002607703209 -0.732230842113494873 -0.544882476329803467 -0.408584266901016235
-5.28700971603393555 5.49700021743774414 1.64429223537445068 -0.295285254716873169 0.825224757194519043 -0.481467306613922119
-0.877847552299499512 4.47172689437866211 5.49700021743774414 0.0103554725646972656 0.374909639358520508 0.92700350284576416
-5.49700021743774414 3.43401837348937988 4.63685989379882812 -0.604937613010406494 -0.573762774467468262 -0.552129268646240234
-3.53705310821533203 4.38467884063720703 5.49700021743774414 0.379805892705917358 0.547677516937255859 0.745517611503601074
-4.90583896636962891 4.54408550262451172 5.49700021743774414 0.552551448345184326 0.640590548515319824 0.533226668834686279
-5.26906967163085938 1.26543402671813965 5.49700021743774414 -0.165083259344100952 -0.568356513977050781 0.806051135063171387
-2.51010823249816895 2.37353754043579102 0.235192418098449707 0.913030087947845459 -0.405936628580093384 0.0398942679166793823
-5.49700021743774414 0.0794081687927246094 5.35149478912353516 -0.713041424751281738 0.665177524089813232 -0.221609428524971008
-5.49700021743774414 -0.0412359237670898438 5.47517490386962891 -0.553890824317932129 -0.832468748092651367 -0.0141687579452991486
-4.72436618804931641 3.98066067695617676 0.00300000002607703209 0.0912076309323310852 0.666193962097167969 -0.74018019437789917
-0.34196019172668457 2.52392959594726562 0.00300000002607703209 0.15155482292175293 0.168077602982521057 -0.974053919315338135
-2.30256509780883789 3.26154994964599609 5.49700069427490234 0.570341706275939941 -0.361685454845428467 0.7374916672706604
-2.20022821426391602 1.42419767379760742 2.90261125564575195 0.478745907545089722 0.228046759963035583 -0.847818970680236816
-3.00252223014831543 1.03674030303955078 0.00300000002607703209 -0.592733204364776611 -0.600883126258850098 -0.536289870738983154
-0.00299952318891882896 -0.662425994873046875 3.38908147811889648 0.841678500175476074 -0.496826231479644775 -0.211520776152610779
-5.49700021743774414 3.95234513282775879 3.43142199516296387 -0.668823480606079102 -0.299203217029571533 0.680553138256072998
-2.08151674270629883 1.5004657506942749 2.99004936218261719 0.346206426620483398 0.140271037817001343 -0.927612602710723877
-5.49700021743774414 3.45364665985107422 4.78307962417602539 -0.907792806625366211 0.370430111885070801 -0.196707293391227722
-3.58922624588012695 3.38356924057006836 3.30299234390258789 0.11553955078125 -0.362260043621063232 -0.924888134002685547
-2.27270412445068359 5.49700021743774414 5.46785879135131836 0.423506379127502441 0.905821919441223145 -0.0113581046462059021
-2.7779686450958252 5.49700021743774414 2.05956196784973145 -0.0288411378860473633 0.564694583415985107 0.824795901775360107
-1.85926127433776855 1.33956396579742432 2.97181320190429688 0.0713707655668258667 0.312816500663757324 -0.9471282958984375
-0.00300047686323523521 3.50967621803283691 5.41574525833129883 0.992246270179748535 0.123368978500366211 -0.0150804240256547928
-4.6542205810546875 4.07471895217895508 0.386218667030334473 -0.207244530320167542 -0.837126731872558594 -0.506229758262634277
-5.49700021743774414 -0.720360755920410156 0.517771720886230469 -0.162453591823577881 -0.299632459878921509 -0.940121889114379883
-2.80746722221374512 2.5423579216003418 0.00300000002607703209 0.433237820863723755 -0.595612227916717529 -0.676425278186798096
-5.38248014450073242 5.49700021743774414 2.48929119110107422 -0.45903325080871582 0.597033083438873291 -0.657905817031860352
-5.49700021743774414 3.43167734146118164 4.67757749557495117 -0.927055478096008301 -0.280733346939086914 0.248509585857391357
-4.45135688781738281 5.49700021743774414 3.57642340660095215 -0.455952674150466919 0.870391964912414551 -0.185810387134552002
-5.49700021743774414 0.911826848983764648 4.52945566177368164 -0.465787827968597412 -0.832502245903015137 0.29996943473815918
-2.42869424819946289 1.76629090309143066 2.71462249755859375 0.757442831993103027 -0.202552646398544312 -0.620687305927276611
-4.39106464385986328 5.49700021743774414 4.25176620483398438 0.250405550003051758 0.910743534564971924 -0.32839500904083252
-3.79576444625854492 3.18340444564819336 3.30299234390258789 -0.553979158401489258 -0.425401240587234497 -0.715640127658843994
-4.69201564788818359 5.49699974060058594 3.69974851608276367 0.132903024554252625 0.903699100017547607 0.407019287347793579
-4.82797384262084961 5.49700021743774414 5.35625171661376953 -0.961146116256713867 0.271308720111846924 -0.0508891493082046509
-4.00355815887451172 1.52808141708374023 0.00300047686323523521 0.334323287010192871 -0.175961017608642578 -0.925886392593383789
-0.00300023844465613365 2.1778717041015625 4.20823192596435547 0.85358893871307373 -0.13397371768951416 0.503425180912017822
-1.91059780120849609 3.43313217163085938 5.49700021743774414 0.0314651988446712494 -0.313535481691360474 0.949055016040802002
-3.74162149429321289 5.49700021743774414 5.06594371795654297 0.271773695945739746 0.816316306591033936 0.509673237800598145
-5.49700021743774414 4.70762777328491211 2.22420454025268555 -0.583276689052581787 -0.433061957359313965 -0.687201321125030518
-3.5791015625 5.49700021743774414 5.31659221649169922 -0.00208730227313935757 0.611380875110626221 -0.79133373498916626
-2.24353241920471191 2.1951441764831543 2.55169796943664551 0.47580486536026001 -0.387258052825927734 -0.789709389209747314
-0.205790281295776367 5.32829809188842773 0.00299952318891882896 0.530128836631774902 -0.0315844304859638214 -0.847328662872314453
-2.98231053352355957 5.49700021743774414 4.12376117706298828 0.41611027717590332 0.872101128101348877 0.25747150182723999
-0.00300000002607703209 4.68305683135986328 0.810722827911376953 0.0707142353057861328 0.648754775524139404 0.75770491361618042
-5.49700021743774414 1.80213534832000732 2.82910799980163574 -0.47296297550201416 -0.742007255554199219 -0.475111782550811768
-2.21488666534423828 1.38077092170715332 2.87055373191833496 0.531075716018676758 0.303431808948516846 -0.791130661964416504
-5.45728302001953125 2.44465112686157227 5.49700021743774414 0.546708226203918457 0.376027494668960571 0.74813997745513916
-0.960504651069641113 2.28864073753356934 0.936802029609680176 0.388920307159423828 -0.255972772836685181 -0.884996533393859863
-4.2206425666809082 4.18059444427490234 5.49700021743774414 -0.353810280561447144 -0.695538520812988281 0.625335454940795898
-4.44297122955322266 3.17493009567260742 0.109650492668151855 0.876292169094085693 0.310361295938491821 0.368494093418121338
-2.98021221160888672 0.538672447204589844 0.00300000002607703209 -0.490713447332382202 -0.793175995349884033 -0.360655307769775391
-4.54610776901245117 3.7496330738067627 3.30299210548400879 -0.372484028339385986 0.162341654300689697 -0.913728892803192139
-2.45759820938110352 1.95601880550384521 2.48725152015686035 0.843025922775268555 -0.433676004409790039 -0.318170487880706787
-5.49700021743774414 -0.859797000885009766 5.14879417419433594 -0.795501291751861572 -0.475850075483322144 -0.375159204006195068
-5.14120388031005859 5.49700021743774414 2.84416890144348145 -0.0530757978558540344 0.717441082000732422 -0.694594323635101318
-5.08324623107910156 1.33725285530090332 5.49700021743774414 0.620089054107666016 -0.311093598604202271 0.720215439796447754
-5.49700021743774414 4.80969429016113281 1.65401482582092285 -0.865650177001953125 -0.359965324401855469 0.347958028316497803
-1.74070501327514648 2.05666899681091309 2.92200469970703125 -0.482570111751556396 0.109885275363922119 -0.868936896324157715
-2.6770625114440918 5.49700021743774414 3.0399782657623291 0.173485159873962402 0.36291167140007019 -0.915531575679779053
-0.00300023844465613365 2.28822731971740723 4.70462608337402344 0.977924048900604248 -0.00901007279753684998 -0.208766281604766846
-5.43692827224731445 5.49700021743774414 4.89679431915283203 0.340032190084457397 0.885019958019256592 0.317990213632583618
-2.1365048885345459 2.06903815269470215 2.8396611213684082 0.371452867984771729 -0.557767868041992188 -0.742238283157348633
-4.11067867279052734 4.99090099334716797 0.00300000002607703209 -0.180684655904769897 0.110092498362064362 -0.977360069751739502
-4.19809055328369141 4.94922161102294922 5.49700021743774414 0.484720796346664429 0.856481194496154785 0.177441984415054321
-1.9285283088684082 1.95071172714233398 1.65299630165100098 0.756251215934753418 0.353665143251419067 -0.550459027290344238
-1.5375058650970459 1.94342315196990967 2.91553974151611328 -0.342473447322845459 -0.362408071756362915 -0.8668174147605896
-3.74123001098632812 4.8100285530090332 0.00300000002607703209 -0.46119573712348938 -0.721535384654998779 -0.516415655612945557
-1.43452882766723633 5.49700021743774414 2.22159576416015625 -0.21354396641254425 0.693762302398681641 -0.68781745433807373
-2.79894280433654785 2.91639614105224609 2.63464713096618652 0.146471589803695679 0.76197659969329834 -0.630823075771331787
-5.49700021743774414 4.20857524871826172 3.49956846237182617 -0.707304000854492188 -0.577521443367004395 -0.407664060592651367
-5.49700021743774414 3.47792196273803711 4.17330455780029297 -0.410228192806243896 -0.471047759056091309 -0.780914127826690674
-3.70680856704711914 5.49700021743774414 4.56913280487060547 -0.0861797332763671875 0.887840151786804199 0.452009975910186768
-5.31399345397949219 5.49700021743774414 4.70119953155517578 0.0916404426097869873 0.763166189193725586 0.63967132568359375
-2.2855536937713623 1.72243785858154297 2.89004397392272949 0.608355820178985596 -0.136801213026046753 -0.78178560733795166
-2.68715071678161621 3.19376492500305176 5.49700021743774414 0.849255859851837158 -0.114039391279220581 0.515518665313720703
-3.94086050987243652 2.96958208084106445 4.10599422454833984 0.450829118490219116 0.722244560718536377 -0.524514913558959961
-2.97227859497070312 1.19754469394683838 0.00300000002607703209 0.366311609745025635 0.0240358561277389526 -0.930181741714477539
-1.86427628993988037 2.34978628158569336 2.45008230209350586 -0.186790943145751953 -0.561920106410980225 0.805825591087341309
-5.49700021743774414 4.66926765441894531 4.13397502899169922 -0.460498213768005371 -0.494858980178833008 -0.736923336982727051
-3.01781249046325684 5.49700021743774414 1.34956240653991699 -0.0565325282514095306 0.463641434907913208 0.884217560291290283
-4.30989694595336914 4.18153142929077148 1.89861011505126953 -0.00988382473587989807 -0.740299344062805176 -0.672204732894897461
-3.25892210006713867 5.49700021743774414 5.48821926116943359 0.760714888572692871 0.648875117301940918 -0.0165514145046472549
-4.74076938629150391 1.26483714580535889 0.00300000002607703209 -0.148711085319519043 -0.507372915744781494 -0.848797857761383057
-2.06920146942138672 3.31372785568237305 5.49700021743774414 0.288786411285400391 0.0864373445510864258 0.953483641147613525
-5.49700021743774414 -0.0750150680541992188 5.47354316711425781 -0.342378169298171997 -0.885964035987854004 -0.312801748514175415
-5.49700021743774414 4.32811594009399414 5.37033176422119141 -0.847429931163787842 0.351164340972900391 -0.398178577423095703
-2.01569557189941406 2.29732775688171387 2.57935953140258789 0.229753375053405762 -0.862077236175537109 -0.451703876256942749
-0.00300000002607703209 -0.406038761138916016 3.84371805191040039 0.561761438846588135 -0.745114684104919434 -0.359483212232589722
-1.46619439125061035 2.07090401649475098 2.77387475967407227 -0.223699629306793213 -0.74250262975692749 -0.631386041641235352
-5.49700021743774414 3.63446545600891113 4.41575336456298828 -0.70346146821975708 0.171422868967056274 -0.689750790596008301
-0.00300047686323523521 0.0944793224334716797 3.43477487564086914 0.97142493724822998 0.0516840182244777679 0.231651321053504944
-0.00300047686323523521 3.6900181770324707 3.24661421775817871 0.944440305233001709 -0.319083958864212036 0.0788541734218597412
-0.572467327117919922 1.13773965835571289 0.00300000002607703209 -0.215636909008026123 -0.114690870046615601 -0.969714879989624023
-2.72250986099243164 1.6816178560256958 0.00300000002607703209 0.244390591979026794 0.891597509384155273 -0.381217896938323975
-4.12983226776123047 3.23638701438903809 5.49700021743774414 0.0520059466361999512 0.465538918972015381 0.883498132228851318
-2.69712972640991211 5.3715825080871582 0.00300023844465613365 0.678032755851745605 -0.0363594666123390198 -0.734131872653961182
-5.49700021743774414 0.146270513534545898 5.30647563934326172 -0.90600740909576416 0.141595855355262756 -0.398874968290328979
-4.38799810409545898 -0.354749172925949097 0.848363637924194336 0.0198187325149774551 -0.930494070053100586 -0.365770459175109863
-5.49700021743774414 3.23054599761962891 5.31469917297363281 -0.523851692676544189 -0.665347099304199219 -0.531876504421234131
-4.09901714324951172 1.77593326568603516 0.00299952318891882896 0.29328465461730957 -0.167881309986114502 -0.941169500350952148
-2.05242776870727539 2.27114701271057129 2.61852121353149414 0.330347299575805664 -0.815288066864013672 -0.475579798221588135
-0.485718250274658203 0.499894618988037109 5.49699926376342773 0.631708204746246338 -0.0951196476817131042 0.769348442554473877
-2.01941204071044922 5.49700021743774414 2.26201486587524414 0.612597882747650146 0.529410421848297119 -0.586897194385528564
-2.4250190258026123 2.65867209434509277 1.20915460586547852 0.488978981971740723 -0.85428464412689209 0.176344171166419983
-2.76057767868041992 5.49700021743774414 0.539170265197753906 -0.694537758827209473 0.590691804885864258 0.410731613636016846
-5.49700021743774414 5.38047409057617188 2.41488075256347656 -0.830903708934783936 -0.0362161695957183838 -0.555236339569091797
-3.39177751541137695 5.49700021743774414 4.01236486434936523 0.0821943357586860657 0.665071368217468262 -0.742242634296417236
-2.4383542537689209 2.61398625373840332 0.267248570919036865 0.913246035575866699 -0.359381556510925293 -0.191902503371238708
-5.49700021743774414 2.44504857063293457 1.84634995460510254 -0.96056818962097168 0.191139787435531616 -0.201926708221435547
-4.92376708984375 5.29896736145019531 5.49700021743774414 -0.206379681825637817 0.385910660028457642 0.89915543794631958
-0.978313803672790527 5.49700021743774414 5.33355712890625 0.63564985990524292 0.634359538555145264 -0.439928710460662842
-5.49700021743774414 1.30538952350616455 2.69297933578491211 -0.252374976873397827 0.459529995918273926 0.85155099630355835
-2.30861926078796387 1.40863978862762451 2.80359315872192383 0.638019144535064697 0.239433348178863525 -0.731849193572998047
-2.19700121879577637 1.58715963363647461 1.76558053493499756 0.737420499324798584 0.138649597764015198 0.661050140857696533
-5.49700021743774414 2.84860944747924805 0.0560555458068847656 -0.39551013708114624 -0.443368077278137207 -0.80436098575592041
-4.35012960433959961 3.05408406257629395 3.30299234390258789 -0.677532076835632324 -0.452897071838378906 -0.579512059688568115
-5.49700021743774414 5.39645719528198242 5.31058311462402344 -0.499626398086547852 0.865135371685028076 -0.043752327561378479
-2.08391904830932617 -0.818560600280761719 5.49700021743774414 0.38412243127822876 -0.833368420600891113 0.397425681352615356
-0.00300000002607703209 1.92465710639953613 2.58538079261779785 0.643249809741973877 0.11295606940984726 -0.757278382778167725
-3.86021542549133301 4.32102632522583008 0.35297083854675293 -0.369008094072341919 -0.903217017650604248 0.219162106513977051
-5.49700021743774414 3.10291624069213867 0.121063232421875 -0.376305311918258667 0.875118553638458252 0.304239779710769653
-5.49354839324951172 1.24065351486206055 0.00300000002607703209 0.407105118036270142 0.420287966728210449 -0.81093984842300415
-3.05525779724121094 4.94859504699707031 0.00300000002607703209 0.342338591814041138 0.224012583494186401 -0.912481606006622314
-3.54212808609008789 5.49700021743774414 1.38023555278778076 -0.706137120723724365 0.553142845630645752 0.442044526338577271
-0.00300000002607703209 5.47022485733032227 3.50225400924682617 0.764646172523498535 0.399042278528213501 -0.506044924259185791
-5.49700021743774414 2.55976223945617676 5.05920600891113281 -0.790722131729125977 0.186165481805801392 0.583182036876678467
-5.18189048767089844 2.31592130661010742 5.49700021743774414 -0.183147460222244263 -0.72360914945602417 0.665467381477355957
-4.82042217254638672 5.08564949035644531 5.49700021743774414 -0.142073333263397217 -0.435779035091400146 0.888769805431365967
-0.00300000002607703209 2.64250421524047852 2.2927861213684082 0.847954988479614258 0.0256481748074293137 0.529447376728057861
-2.91142606735229492 5.48801231384277344 5.49700021743774414 0.367328643798828125 -0.0320049002766609192 0.929540395736694336
-2.08191990852355957 2.09450793266296387 2.8479163646697998 0.394925534725189209 -0.559456408023834229 -0.728726506233215332
-5.49700021743774414 1.56518149375915527 4.7523193359375 -0.679828643798828125 0.383253574371337891 -0.625259697437286377
-5.49700021743774414 3.26902675628662109 3.09154295921325684 -0.978262901306152344 0.0572337508201599121 -0.199314028024673462
-5.49700021743774414 5.11802482604980469 2.67455339431762695 -0.911153674125671387 -0.308445483446121216 -0.273240447044372559
-1.71870088577270508 2.0779421329498291 2.90181207656860352 -0.0920151025056838989 -0.553108692169189453 -0.82801210880279541
-1.78526341915130615 1.8389887809753418 3.02917933464050293 -0.0278100427240133286 -0.203680723905563354 -0.97864234447479248
-2.23128557205200195 5.49700021743774414 5.33054828643798828 0.324296563863754272 0.683287262916564941 -0.654179036617279053
-1.81221938133239746 1.82731282711029053 3.03414368629455566 -0.0121980011463165283 -0.27434086799621582 -0.961555123329162598
-3.03142905235290527 4.21392154693603516 1.31264591217041016 -0.315705299377441406 0.5505332350730896 0.772815167903900146
-2.9836122989654541 4.05977773666381836 1.94533467292785645 -0.203135281801223755 -0.613278031349182129 0.763299524784088135
-5.49700021743774414 2.72904801368713379 2.44005680084228516 -0.474549829959869385 0.0397726595401763916 -0.8793296217918396
-3.55420684814453125 5.49700021743774414 5.26989126205444336 -0.59883350133895874 0.751100599765777588 -0.277932286262512207
-5.2539515495300293 5.49700021743774414 4.92297983169555664 0.508606076240539551 0.230807945132255554 0.829486310482025146
-0.00300000002607703209 4.55203914642333984 1.32499420642852783 0.955585002899169922 0.2873363196849823 0.065537676215171814
-1.68201148509979248 1.48040771484375 3.00841879844665527 -0.110283225774765015 0.194466233253479004 -0.974689960479736328
-2.46756744384765625 1.49160444736480713 2.60119199752807617 0.839138805866241455 0.204649031162261963 -0.503949344158172607
-3.47731947898864746 3.37570047378540039 3.30299234390258789 0.458548009395599365 -0.407412528991699219 -0.789777636528015137
-2.73796892166137695 1.60997271537780762 0.886563539505004883 0.900022923946380615 -0.236097857356071472 0.366355776786804199
-2.18079280853271484 5.43273210525512695 0.00300000002607703209 0.711114048957824707 0.619823217391967773 -0.331867396831512451
-5.49700021743774414 2.52959108352661133 4.44751358032226562 -0.678438663482666016 0.0390191301703453064 -0.733620107173919678
-2.7850794792175293 5.30086851119995117 0.00299976160749793053 0.265834629535675049 0.311741262674331665 -0.912222206592559814
-2.537811279296875 4.82635593414306641 0.00300023844465613365 0.784730970859527588 0.228465303778648376 -0.576195240020751953
-5.01817131042480469 4.34904956817626953 5.49700021743774414 0.22329084575176239 -0.447928965091705322 0.865737199783325195
-1.47701692581176758 2.20068025588989258 2.59709596633911133 -0.426016867160797119 -0.767643272876739502 -0.478783398866653442
-3.73180460929870605 4.36086034774780273 0.0376776456832885742 0.0599955655634403229 -0.973042905330657959 0.222683757543563843
-5.45166301727294922 1.85300064086914062 5.49700021743774414 -0.0502134636044502258 -0.107459500432014465 0.992940604686737061
-4.67647266387939453 3.52466988563537598 5.49699974060058594 -0.0560471713542938232 0.502728700637817383 0.862625360488891602
-4.56298208236694336 -0.101942799985408783 0.937609672546386719 0.002288472605869174 -0.999996066093444824 0.00162936432752758265
-1.61777651309967041 2.13270306587219238 2.81717944145202637 -0.247436001896858215 -0.618704438209533691 -0.745640814304351807
-2.00757026672363281 1.83260095119476318 3.01287174224853516 0.285268783569335938 -0.567359507083892822 -0.772479772567749023
-2.05887746810913086 2.03742432594299316 1.81372642517089844 -0.0885132402181625366 -0.632022619247436523 0.769878506660461426
-0.00300000002607703209 2.33403539657592773 4.29204368591308594 0.184996545314788818 0.232054680585861206 -0.954948663711547852
-5.49700021743774414 2.04871082305908203 3.28500247001647949 -0.775227487087249756 -0.62888944149017334 -0.0593331232666969299
-4.08465814590454102 3.28266382217407227 3.30299234390258789 -0.373116672039031982 0.427745640277862549 -0.823296904563903809
-1.69317805767059326 5.49700021743774414 5.17405033111572266 0.542482197284698486 0.653414070606231689 -0.527980268001556396
-5.49700021743774414 3.18260955810546875 1.83569884300231934 -0.505979180335998535 0.287847906351089478 -0.81309819221496582
-0.00300000002607703209 2.14337921142578125 3.89886832237243652 0.944056689739227295 -0.139050647616386414 -0.299035012722015381
-3.98889517784118652 2.66123819351196289 3.30299258232116699 -0.1517619788646698 -0.194233134388923645 -0.969144880771636963
-2.65917396545410156 3.32246923446655273 5.49700021743774414 -0.510240912437438965 -0.590529799461364746 0.625242948532104492
-0.00299952318891882896 -0.696063518524169922 1.91673493385314941 0.67942965030670166 -0.591345846652984619 -0.434379339218139648
-0.00300000002607703209 5.20477724075317383 4.15877532958984375 0.747239112854003906 0.62827688455581665 -0.21656838059425354
-1.38225102424621582 5.49700021743774414 4.98079776763916016 -0.302850574254989624 0.925704598426818848 -0.226610928773880005
-5.43261623382568359 2.41500711441040039 0.00300000002607703209 -0.907644391059875488 0.316351205110549927 -0.27586856484413147
-5.49700021743774414 1.05791568756103516 5.46116256713867188 -0.803168356418609619 -0.575194180011749268 -0.155152291059494019
-2.8417973518371582 5.49700021743774414 4.48412942886352539 -0.434005320072174072 0.677464962005615234 -0.593869149684906006
-1.7161020040512085 1.56919229030609131 3.03549361228942871 -0.0854581072926521301 0.111716985702514648 -0.990058720111846924
-3.91710638999938965 3.76748323440551758 3.36223411560058594 0.992196321487426758 -0.0732863396406173706 0.100874297320842743
-3.65979194641113281 0.582944273948669434 0.74832528829574585 -0.23599611222743988 -0.368851244449615479 -0.899029850959777832
-0.00300000002607703209 1.88688755035400391 5.25402641296386719 0.956557750701904297 0.0778964757919311523 -0.280943751335144043
-5.49700021743774414 2.11607670783996582 4.41040658950805664 -0.282956242561340332 -0.622594714164733887 -0.729596912860870361
-5.49700021743774414 4.83314228057861328 4.88716506958007812 -0.913128316402435303 0.371909409761428833 -0.166973099112510681
-5.49700021743774414 -0.00471782684326171875 0.620031833648681641 -0.853766500949859619 -0.507986068725585938 -0.114161744713783264
-0.00300000002607703209 4.21745014190673828 4.24230384826660156 0.918350577354431152 0.330831676721572876 0.217215687036514282
-5.49700021743774414 5.35914182662963867 5.48642635345458984 -0.808943986892700195 0.573547601699829102 -0.129045814275741577
-1.92821109294891357 1.25301873683929443 2.91008424758911133 0.152655214071273804 0.47353661060333252 -0.867444217205047607
-5.49700021743774414 4.14359092712402344 4.02845573425292969 -0.499585062265396118 0.00263079372234642506 0.866260886192321777
-0.151116371154785156 1.34426426887512207 0.00300000002607703209 -0.0538268536329269409 -0.737639427185058594 -0.673045933246612549
-5.49700021743774414 0.37299656867980957 5.45199728012084961 -0.959213376045227051 -0.281563222408294678 -0.0251369457691907883
-5.49700021743774414 1.22559797763824463 0.248185396194458008 -0.418897509574890137 -0.100550234317779541 0.902449190616607666
