ply
format ascii 1.0
element vertex 379
property float x
property float y
property float z
property float nx
property float ny
property float nz
end_header
-5.39033699035644531 -0.126217842102050781 5.49700021743774414 0.0457779243588447571 -0.250732272863388062 0.966973483562469482
-2.36146354675292969 1.92512309551239014 2.73750996589660645 0.733141303062438965 -0.361331343650817871 -0.576145291328430176
-1.43860280513763428 0.385555267333984375 0.00300000002607703209 -0.247985780239105225 -0.27886587381362915 -0.927759051322937012
-5.49700021743774414 0.503527402877807617 0.312496423721313477 -0.760934233665466309 0.293900430202484131 -0.578447520732879639
-5.45608806610107422 5.49700021743774414 5.10502147674560547 -0.664827823638916016 0.744264304637908936 -0.0638327300548553467
-0.00300000002607703209 1.54387021064758301 4.72935628890991211 0.813176870346069336 0.363608181476593018 -0.454458504915237427
-5.49700021743774414 3.49854755401611328 1.5580284595489502 -0.280504316091537476 -0.443645447492599487 -0.851173341274261475
-2.05290532112121582 1.41440987586975098 2.97149753570556641 0.340555042028427124 0.322055935859680176 -0.883347153663635254
-2.16962409019470215 2.2186591625213623 2.10154461860656738 0.462166070938110352 -0.859668254852294922 0.21765369176864624
-5.49700021743774414 5.43293523788452148 3.9823455810546875 -0.686736822128295898 -0.402830183506011963 -0.605078816413879395
-0.00300000002607703209 2.59498834609985352 3.1846013069152832 0.931107819080352783 0.0398711264133453369 -0.362558364868164062
-1.45403850078582764 1.90133130550384521 2.88116168975830078 -0.5046425461769104 -0.338172465562820435 -0.794339537620544434
-4.00914525985717773 5.49700021743774414 3.46758580207824707 0.525292515754699707 0.777312874794006348 -0.346197128295898438
-4.32049036026000977 2.78009748458862305 2.85154628753662109 0.574946045875549316 -0.252197951078414917 -0.778352916240692139
-2.3613433837890625 2.10272932052612305 2.49478983879089355 0.448124825954437256 -0.309208273887634277 -0.838793456554412842
-1.68201982975006104 1.70858490467071533 3.03362917900085449 -0.178647890686988831 -0.0692899897694587708 -0.981470286846160889
-2.14362931251525879 1.42979669570922852 2.93855857849121094 0.425005525350570679 0.299355298280715942 -0.85425800085067749
-5.49700021743774414 2.6331169605255127 1.4347003698348999 -0.932369410991668701 -0.29015079140663147 0.215638279914855957
-4.46183109283447266 4.16237068176269531 0.00299952318891882896 -0.550468087196350098 -0.254851102828979492 -0.795006752014160156
-1.88148164749145508 1.12658917903900146 2.79233980178833008 0.0865478068590164185 0.745274066925048828 -0.661117315292358398
-2.04777717590332031 1.89729952812194824 2.98040246963500977 0.312005728483200073 -0.340592086315155029 -0.886932611465454102
-0.00300000002607703209 5.33159589767456055 4.4419560432434082 0.374790847301483154 -0.68625175952911377 -0.623370170593261719
-3.24766731262207031 5.49700021743774414 2.12138056755065918 0.13544812798500061 0.627565324306488037 -0.766691148281097412
-3.51655316352844238 3.23537540435791016 3.30299234390258789 -0.0427039861679077148 -0.753127038478851318 -0.656487584114074707
-1.56823217868804932 1.57499969005584717 2.98969769477844238 -0.34553682804107666 0.110624939203262329 -0.931861817836761475
-2.42841148376464844 1.91513717174530029 2.0857081413269043 0.75286412239074707 -0.441049963235855103 0.488539218902587891
-1.92510652542114258 2.04288887977600098 2.93510198593139648 0.151740878820419312 -0.549810409545898438 -0.821391105651855469
-1.36049914360046387 0.638854503631591797 0.00300000002607703209 -0.256491243839263916 0.173967361450195312 -0.950761556625366211
-4.05516338348388672 3.81629610061645508 3.41929388046264648 -0.717313408851623535 -0.57299494743347168 0.396406650543212891
-4.05231714248657227 0.658158779144287109 0.74832528829574585 -0.279995530843734741 -0.487847685813903809 -0.826805353164672852
-4.23498392105102539 2.50445556640625 3.00191950798034668 0.882057011127471924 -0.326808452606201172 -0.339369446039199829
-0.00300023844465613365 4.35573911666870117 4.01526498794555664 0.95751953125 0.200295791029930115 0.207456007599830627
-3.3471989631652832 -0.781438350677490234 5.49700021743774414 -0.348171830177307129 -0.590475082397460938 0.728090405464172363
-1.8537980318069458 1.05015718936920166 2.0414729118347168 0.0843438282608985901 0.855072855949401855 0.511602044105529785
-1.81871116161346436 1.45702457427978516 3.02120208740234375 -0.0313132964074611664 0.285035312175750732 -0.958005428314208984
-5.49700021743774414 3.41815757751464844 4.87208318710327148 -0.559272825717926025 -0.60107874870300293 -0.570892512798309326
-3.4603884220123291 -0.157601147890090942 0.754669368267059326 0.0865520760416984558 -0.836305201053619385 0.541389286518096924
-3.59150934219360352 1.6857445240020752 0.00299976160749793053 0.442258358001708984 0.506513833999633789 -0.740169763565063477
-3.79137730598449707 -0.836513519287109375 0.00300023844465613365 0.488041073083877563 -0.241039127111434937 -0.838877856731414795
-4.50873279571533203 0.414602756500244141 0.791190683841705322 -0.241369292140007019 0.968770444393157959 0.0567860230803489685
-5.42994213104248047 5.49700021743774414 2.82491183280944824 0.670117974281311035 0.665952742099761963 -0.327793806791305542
-2.78419804573059082 1.45505881309509277 0.210671663284301758 0.968444526195526123 -0.207545831799507141 0.137985333800315857
-2.52000093460083008 4.24586820602416992 0.00299904635176062584 0.265446692705154419 -0.214223921298980713 -0.94002455472946167
-1.4441370964050293 2.12207889556884766 2.69066452980041504 -0.437261283397674561 -0.718079209327697754 -0.541447103023529053
-4.49997615814208984 2.55542612075805664 0.00300000002607703209 0.432288259267807007 0.448108434677124023 -0.782512426376342773
-3.55979704856872559 3.6715245246887207 3.42620658874511719 -0.858350276947021484 0.489324480295181274 0.154260799288749695
-5.49700021743774414 0.852060794830322266 1.06295108795166016 -0.343732893466949463 -0.0337841100990772247 -0.938459575176239014
-0.00300000002607703209 4.60860395431518555 2.5530693531036377 0.846479117870330811 -0.189168378710746765 0.497683018445968628
-4.93569469451904297 5.49700021743774414 0.905628323554992676 0.130997136235237122 0.781256794929504395 0.610309422016143799
-4.65233278274536133 3.84983468055725098 2.80008697509765625 0.163563892245292664 0.921908020973205566 -0.351187139749526978
-5.49700021743774414 3.42518997192382812 0.169505834579467773 -0.815471827983856201 -0.542019665241241455 0.203028023242950439
-2.09193301200866699 1.82771682739257812 2.98668932914733887 0.369982898235321045 -0.235817134380340576 -0.898611664772033691
-3.4460294246673584 0.324827373027801514 0.870092391967773438 0.365110814571380615 -0.118084028363227844 -0.923444807529449463
-1.89259719848632812 1.46007180213928223 3.02080392837524414 0.0772292837500572205 0.25689387321472168 -0.963348984718322754
-5.49700021743774414 4.05717802047729492 5.03738975524902344 -0.261081546545028687 -0.919636249542236328 -0.293437540531158447
-4.20228052139282227 3.54941368103027344 3.398468017578125 0.937620759010314941 0.195228561758995056 0.287668466567993164
-2.52027750015258789 1.65314090251922607 2.49978733062744141 0.95888364315032959 0.0107816513627767563 -0.283594608306884766
-1.64297914505004883 1.7995980978012085 3.00997591018676758 -0.26664242148399353 -0.228734403848648071 -0.936259746551513672
-2.61504030227661133 2.02190923690795898 0.0127831101417541504 0.894771456718444824 -0.446443170309066772 0.00852045323699712753
-1.75190234184265137 0.132154226303100586 0.00300000002607703209 0.476842999458312988 0.115281917154788971 -0.87139594554901123
-1.95535159111022949 1.34422087669372559 2.96391654014587402 0.17882770299911499 0.432931661605834961 -0.883510470390319824
-3.94689321517944336 5.49700021743774414 5.33972358703613281 0.435122698545455933 0.595780313014984131 0.675065994262695312
-5.49700021743774414 3.37624955177307129 5.32577228546142578 -0.772720158100128174 -0.562293410301208496 0.294499069452285767
-4.63968658447265625 5.49700021743774414 5.48833560943603516 0.392239570617675781 0.918800711631774902 -0.0441973693668842316
-5.49700021743774414 0.0565292835235595703 1.86426889896392822 -0.727409243583679199 -0.588402986526489258 0.353068947792053223
-2.37569546699523926 2.10252761840820312 2.2984614372253418 0.762649774551391602 -0.646809816360473633 0.00155560299754142761
-3.70687985420227051 3.04383969306945801 3.58116960525512695 -0.725527167320251465 0.530416488647460938 0.438484907150268555
-3.57023096084594727 5.49700021743774414 1.09965193271636963 -0.415788769721984863 0.87660139799118042 -0.242259681224822998
-3.69072985649108887 0.258681535720825195 0.74832528829574585 -0.409687310457229614 0.906360089778900146 -0.103284873068332672
-5.49700021743774414 4.50127601623535156 5.4714207649230957 -0.53690868616104126 -0.181535989046096802 -0.823877274990081787
-5.49700021743774414 0.868595123291015625 4.447052001953125 -0.807125866413116455 -0.494881331920623779 -0.321932226419448853
-5.49700021743774414 3.53793048858642578 2.39433193206787109 -0.642646074295043945 0.0186601057648658752 -0.76593625545501709
-5.49700021743774414 -0.599513530731201172 0.790218353271484375 -0.448064476251602173 -0.389245301485061646 0.804814457893371582
-4.98214101791381836 2.14688396453857422 0.00300000002607703209 0.938652753829956055 0.316098242998123169 -0.137887194752693176
-2.89561986923217773 2.88640618324279785 2.25319647789001465 -0.650233030319213867 0.74709784984588623 -0.137993037700653076
-2.36725378036499023 1.24864327907562256 2.53272342681884766 0.752156734466552734 0.570830285549163818 -0.329261481761932373
-2.10371756553649902 1.42497479915618896 2.95586895942687988 0.334972113370895386 0.298280179500579834 -0.893768787384033203
-1.89643740653991699 1.6139070987701416 3.05066466331481934 0.0977224856615066528 0.0414052940905094147 -0.994351983070373535
-5.33024740219116211 0.363170623779296875 5.49700021743774414 0.147296801209449768 -0.398627251386642456 0.905207157135009766
-2.0961301326751709 1.24205613136291504 2.84620022773742676 0.350240349769592285 0.582977533340454102 -0.733122706413269043
-4.09104537963867188 3.20715570449829102 3.43195700645446777 -0.418675482273101807 -0.00477123307064175606 0.908123373985290527
-3.39647364616394043 3.51668596267700195 3.5616753101348877 -0.751381099224090576 -0.417516022920608521 0.510986089706420898
-2.03726387023925781 1.43385529518127441 2.98417973518371582 0.301850408315658569 0.302341938018798828 -0.904143691062927246
-0.341488122940063477 2.11612343788146973 5.49700021743774414 0.780693531036376953 -0.158304959535598755 0.604530572891235352
-2.51078557968139648 1.79332137107849121 2.22958755493164062 0.951517343521118164 -0.295153915882110596 0.0865961313247680664
-1.43221473693847656 2.07469844818115234 2.73554015159606934 -0.576761722564697266 -0.569668829441070557 -0.585511207580566406
-1.94304740428924561 1.50251531600952148 3.02711081504821777 0.162276849150657654 0.207576051354408264 -0.964664936065673828
-0.00300000002607703209 1.66156327724456787 1.97181951999664307 0.887618899345397949 -0.335444360971450806 -0.315610021352767944
-2.65021777153015137 2.98503684997558594 2.58102178573608398 -0.507439017295837402 0.858638465404510498 0.0724259614944458008
-2.365447998046875 2.10373806953430176 2.47315573692321777 0.739547252655029297 -0.632559895515441895 -0.230082482099533081
-0.00300000002607703209 3.95189476013183594 4.22091579437255859 0.734059989452362061 -0.678912639617919922 0.0152852088212966919
-1.21954214572906494 2.36594176292419434 1.56837797164916992 0.109590373933315277 -0.76285862922668457 -0.637210071086883545
-2.51856708526611328 1.78418111801147461 2.44794797897338867 0.963944435119628906 -0.192440181970596313 -0.183787450194358826
-5.49700021743774414 -0.191769123077392578 3.97999334335327148 -0.834437966346740723 -0.429508954286575317 0.345304727554321289
-5.49700117111206055 1.80270147323608398 4.96321296691894531 -0.921486258506774902 0.377627521753311157 -0.0908872261643409729
-0.00299952318891882896 1.07090473175048828 4.40518760681152344 0.93822181224822998 -0.108551859855651855 0.328567087650299072
-1.92836165428161621 2.30937623977661133 2.12121844291687012 0.158039391040802002 -0.963173985481262207 0.217530235648155212
-3.80614018440246582 -0.468539506196975708 0.968414902687072754 -0.414585292339324951 -0.891961514949798584 -0.180343255400657654
-0.955966353416442871 -0.344543218612670898 0.00300000002607703209 0.418357431888580322 -0.896056652069091797 -0.148524269461631775
-1.72218585014343262 1.41275262832641602 2.99407148361206055 -0.168031573295593262 0.323236256837844849 -0.931280732154846191
-0.00300000002607703209 3.04718923568725586 3.52475070953369141 0.743254244327545166 0.525080323219299316 0.414564847946166992
-5.46913623809814453 4.48723697662353516 0.00300023844465613365 -0.38148084282875061 0.574380576610565186 -0.724264740943908691
-0.00300000002607703209 0.754218935966491699 3.71838188171386719 0.772130668163299561 -0.371510922908782959 0.515552222728729248
-1.85164690017700195 1.80772888660430908 3.03957080841064453 0.0135770095512270927 -0.250831186771392822 -0.967935621738433838
-1.93306076526641846 1.55005562305450439 1.67766880989074707 0.319102734327316284 0.482206463813781738 0.815873980522155762
-5.44079494476318359 5.49700021743774414 5.23144769668579102 -0.641977846622467041 0.37591254711151123 -0.668247103691101074
-0.00300000002607703209 0.421273231506347656 5.42712211608886719 0.928074240684509277 -0.325810879468917847 0.180348113179206848
-4.46178627014160156 4.13441324234008789 0.718949615955352783 0.697129189968109131 -0.102769024670124054 -0.709541678428649902
-0.00300000002607703209 1.97568857669830322 3.58275032043457031 0.493168443441390991 0.280689716339111328 -0.823406457901000977
-2.37137484550476074 1.83177173137664795 2.77522540092468262 0.717987298965454102 -0.322081565856933594 -0.617055594921112061
-3.24950551986694336 2.77662777900695801 3.1555943489074707 -0.477160066366195679 0.247026219964027405 0.843383848667144775
-2.80974459648132324 2.04437375068664551 0.00299952318891882896 -0.0184692647308111191 0.0191139187663793564 -0.99964672327041626
-5.49699974060058594 -0.329671382904052734 4.55895614624023438 -0.908106446266174316 -0.365418344736099243 -0.204479977488517761
-1.18341660499572754 1.55406856536865234 2.52995061874389648 0.0496271960437297821 0.0697906091809272766 -0.996326446533203125
-1.71194159984588623 1.75835788249969482 3.03503322601318359 -0.159662440419197083 -0.132543995976448059 -0.978233098983764648
-5.49700021743774414 -0.881177902221679688 1.96316516399383545 -0.731976807117462158 -0.335868090391159058 0.592792212963104248
-2.06974887847900391 1.623848557472229 3.0144495964050293 0.308743715286254883 0.052530340850353241 -0.949693560600280762
-0.00300000002607703209 4.97320127487182617 0.969178557395935059 0.991031289100646973 -0.110139735043048859 0.0756720900535583496
-1.45963263511657715 1.79244899749755859 2.92206311225891113 -0.493933320045471191 -0.205991238355636597 -0.844747006893157959
-4.78485488891601562 2.22013616561889648 5.49700021743774414 0.5905190110206604 -0.371752291917800903 0.716301321983337402
-2.32005763053894043 2.03343105316162109 2.69960856437683105 0.65348517894744873 -0.536407530307769775 -0.534063816070556641
-3.68158888816833496 0.120187759399414062 5.49700021743774414 0.162243455648422241 -0.648504555225372314 0.743719696998596191
-4.46096420288085938 5.15273332595825195 5.49700021743774414 -0.391446202993392944 0.232294723391532898 0.890398263931274414
-0.742893218994140625 1.49769902229309082 0.00300000002607703209 0.0104297511279582977 0.0239417199045419693 -0.999658942222595215
-3.56834697723388672 3.89301586151123047 3.30299234390258789 0.724365413188934326 -0.594835519790649414 -0.348519027233123779
-1.62613260746002197 0.759113669395446777 0.775889575481414795 0.9701346755027771 0.0542146898806095123 0.23643060028553009
-5.49700021743774414 3.08580327033996582 4.68638277053833008 -0.763717055320739746 0.112336382269859314 0.635701835155487061
-1.97596430778503418 1.68009543418884277 3.04160666465759277 0.186033949255943298 -0.0581342950463294983 -0.980821967124938965
-5.49700021743774414 1.54065108299255371 5.04754114151000977 -0.901919960975646973 0.352258443832397461 -0.24990883469581604
-4.73888540267944336 -0.589329957962036133 0.00300000002607703209 -0.195982933044433594 -0.345638513565063477 -0.91767352819442749
-1.93976795673370361 5.49700021743774414 4.5612640380859375 0.627867281436920166 0.383603781461715698 0.677222907543182373
-2.04420995712280273 2.00435400009155273 1.78680324554443359 0.212996691465377808 -0.601238906383514404 0.770158529281616211
-5.43145561218261719 3.06310820579528809 5.49700021743774414 -0.469895422458648682 0.0109514165669679642 0.882654130458831787
-3.94786381721496582 3.16479063034057617 3.41898012161254883 -0.410592347383499146 -0.163919240236282349 0.896963953971862793
-5.18986606597900391 4.23384571075439453 0.00300000002607703209 0.194775477051734924 0.845745265483856201 -0.496766954660415649
-4.72715663909912109 2.63083887100219727 0.00300023844465613365 -0.092958889901638031 -0.778826713562011719 -0.620312511920928955
-4.62192249298095703 2.81931114196777344 0.00300023844465613365 0.39304766058921814 0.308862566947937012 -0.866093218326568604
-0.00300000002607703209 1.92104625701904297 3.54785943031311035 0.947924911975860596 -0.302919954061508179 0.0983760803937911987
-0.00300000002607703209 2.9981076717376709 4.07768917083740234 0.906667947769165039 -0.417868256568908691 -0.0577872991561889648
-5.49700021743774414 2.42958188056945801 0.0876667499542236328 -0.548681259155273438 -0.0794190466403961182 0.832250833511352539
-0.00300047686323523521 2.61827492713928223 4.91357994079589844 0.83405768871307373 -0.425391614437103271 0.351268738508224487
-0.00300000002607703209 2.62197566032409668 5.23097419738769531 0.612478673458099365 -0.784515619277954102 -0.096979871392250061
-2.27039241790771484 2.20528101921081543 2.29603099822998047 0.626434206962585449 -0.779459953308105469 0.0047282688319683075
-3.81789517402648926 3.25805401802062988 3.36231279373168945 0.17135930061340332 -0.36387065052986145 0.915551245212554932
-1.11489009857177734 0.238364219665527344 0.00300047686323523521 0.359533369541168213 0.199929773807525635 -0.911462485790252686
-5.49700021743774414 0.474137544631958008 5.47969245910644531 -0.255292534828186035 -0.86138993501663208 -0.439127653837203979
-4.60739898681640625 4.08924341201782227 3.01124835014343262 0.500015735626220703 -0.682527720928192139 0.533047974109649658
-5.49700021743774414 -0.564571857452392578 0.415591955184936523 -0.736276328563690186 -0.6209602952003479 0.268896818161010742
-2.59575772285461426 2.08652448654174805 1.06711363792419434 0.1858958899974823 -0.535582065582275391 -0.823768556118011475
-1.63591456413269043 3.88273048400878906 5.49700021743774414 -0.217179998755455017 -0.911726832389831543 0.348693251609802246
-2.20286321640014648 1.26571309566497803 1.92046439647674561 0.599101066589355469 0.532778918743133545 0.597682654857635498
-2.2253267765045166 2.08082365989685059 2.75990939140319824 0.551804542541503906 -0.559745669364929199 -0.618220508098602295
-0.00300000002607703209 0.135716915130615234 0.166035175323486328 0.774648725986480713 0.225542739033699036 0.590804398059844971
-1.56545662879943848 1.9608922004699707 2.92107915878295898 -0.170231670141220093 -0.680616974830627441 -0.712588071823120117
-2.55193662643432617 5.49699974060058594 3.04189682006835938 -0.274435222148895264 0.888695299625396729 0.367295533418655396
-4.43533420562744141 2.72754621505737305 0.00300000002607703209 0.0433732867240905762 -0.263577103614807129 -0.96366274356842041
-4.06682062149047852 4.25693511962890625 0.018916010856628418 0.26950564980506897 -0.65610206127166748 -0.704909026622772217
-5.22363996505737305 1.48540592193603516 5.49699926376342773 -0.0393585972487926483 -0.385656565427780151 0.921802520751953125
-4.06313753128051758 5.49700021743774414 2.35737490653991699 0.0764150321483612061 0.672696173191070557 -0.735962331295013428
-1.36982250213623047 1.98631870746612549 5.49700021743774414 0.490976691246032715 -0.291693121194839478 0.820887982845306396
-2.26712679862976074 2.1728675365447998 2.15496420860290527 0.500358223915100098 -0.576314330101013184 -0.646145105361938477
-2.01146316528320312 2.25884914398193359 2.67153358459472656 0.247055798768997192 -0.826389312744140625 -0.506008028984069824
-1.58276510238647461 2.21693849563598633 1.65299677848815918 0.378918349742889404 -0.535845458507537842 -0.75451350212097168
-4.78745937347412109 5.49699974060058594 1.72277522087097168 0.225379988551139832 0.971090018749237061 -0.0786642581224441528
-2.59227538108825684 2.09819483757019043 0.493710607290267944 0.549777507781982422 -0.720120012760162354 0.423286974430084229
-0.00300000002607703209 1.8500373363494873 1.04606103897094727 0.632735610008239746 -0.513309299945831299 -0.579792320728302002
-0.00300000002607703209 2.156707763671875 2.40546178817749023 0.0258282721042633057 -0.742462158203125 -0.669389963150024414
-2.18615007400512695 1.61188626289367676 2.96012639999389648 0.484153896570205688 0.0654137134552001953 -0.872534275054931641
-0.147462129592895508 0.569814682006835938 5.49700021743774414 0.734270334243774414 -0.569291591644287109 0.369803488254547119
-2.10641980171203613 2.63060140609741211 1.32247698307037354 -0.0739622190594673157 -0.756249964237213135 0.650088906288146973
-1.43723964691162109 2.18060946464538574 2.57511711120605469 -0.56150507926940918 -0.73559260368347168 -0.378966361284255981
-4.75728607177734375 5.49700021743774414 0.991410017013549805 0.281122982501983643 0.744352877140045166 0.605729877948760986
-4.22789144515991211 2.48159265518188477 1.11646568775177002 0.606348693370819092 -0.758503496646881104 -0.238775536417961121
-2.03857111930847168 1.69119417667388916 3.02540969848632812 0.296331435441970825 -0.0526599660515785217 -0.953632354736328125
-1.9636542797088623 1.21782004833221436 2.87466645240783691 0.201060444116592407 0.585275769233703613 -0.785510659217834473
-3.14141321182250977 5.49700021743774414 3.99053716659545898 -0.303184807300567627 0.824955582618713379 0.476998180150985718
-2.00650882720947266 1.76172101497650146 3.02752184867858887 0.2344178706407547 -0.129202574491500854 -0.963511824607849121
-2.03710150718688965 1.94390249252319336 2.96425390243530273 0.283056408166885376 -0.377970576286315918 -0.881485819816589355
-2.40431642532348633 1.80643343925476074 2.73969888687133789 0.738845586776733398 -0.245918601751327515 -0.627400398254394531
-0.00300023844465613365 2.40227413177490234 1.02570390701293945 0.739108681678771973 -0.594435632228851318 0.316803812980651855
-4.69275951385498047 3.98015546798706055 1.63572108745574951 0.533719778060913086 0.103069715201854706 0.839356839656829834
-2.18474912643432617 1.79958784580230713 2.94794392585754395 0.487831592559814453 -0.197011396288871765 -0.850415706634521484
-1.65206682682037354 1.53719460964202881 3.01417303085327148 -0.231947898864746094 0.13961830735206604 -0.962656199932098389
-1.42361223697662354 2.06563973426818848 1.98099231719970703 -0.492301285266876221 -0.643224835395812988 0.586430907249450684
-2.22814726829528809 1.13324916362762451 2.57593631744384766 0.562172770500183105 0.739219188690185547 -0.3708324134349823
-2.52836108207702637 1.74437189102172852 2.30782818794250488 0.998690247535705566 -0.0466288179159164429 -0.0210565067827701569
-5.16312980651855469 5.23011302947998047 5.49700021743774414 -0.382746845483779907 -0.31311604380607605 0.869173824787139893
-3.80582070350646973 3.28478550910949707 3.35181760787963867 -0.262129753828048706 0.911196231842041016 0.317819833755493164
-2.31654191017150879 2.08003354072570801 2.64631962776184082 0.686140179634094238 -0.575003683567047119 -0.445625931024551392
-2.13012170791625977 1.42633402347564697 2.94389438629150391 0.402259171009063721 0.304253518581390381 -0.863491415977478027
-5.46919727325439453 4.06346225738525391 5.49700021743774414 0.583946764469146729 0.496473729610443115 0.642277240753173828
-4.30594205856323242 5.49228858947753906 5.49700021743774414 -0.240422576665878296 -0.0638512521982192993 0.968565940856933594
-3.53444933891296387 3.73947525024414062 4.30241250991821289 0.121387176215648651 -0.384627014398574829 -0.91505587100982666
-2.21019554138183594 2.05028128623962402 2.80282044410705566 0.510356545448303223 -0.535837531089782715 -0.672617554664611816
-5.49700021743774414 1.86496710777282715 0.879474639892578125 -0.270312070846557617 -0.620391428470611572 0.736237645149230957
-5.15718221664428711 2.37832951545715332 0.00300023844465613365 0.137872874736785889 0.0562974698841571808 -0.988848626613616943
-1.86095046997070312 2.11624789237976074 2.88489890098571777 0.0213885996490716934 -0.638346433639526367 -0.76945197582244873
-2.77221846580505371 1.49520230293273926 0.907167732715606689 0.613353848457336426 -0.35715639591217041 -0.704440474510192871
-1.49617981910705566 2.64864969253540039 5.49700021743774414 0.768939375877380371 -0.151411592960357666 0.621133387088775635
-0.00300023844465613365 1.48146533966064453 2.09267902374267578 0.830641984939575195 -0.369192183017730713 -0.416810274124145508
-2.10624814033508301 5.49700069427490234 2.2323756217956543 -0.137018114328384399 0.763932347297668457 -0.630581796169281006
-1.78025472164154053 2.06720209121704102 2.92047286033630371 -0.0528709329664707184 -0.549680709838867188 -0.833700120449066162
-5.49700021743774414 5.31584453582763672 5.14486503601074219 -0.595992028713226318 -0.794674694538116455 -0.115263201296329498
-3.74810218811035156 3.67307758331298828 3.30299234390258789 0.291286230087280273 -0.788171172142028809 -0.542160928249359131
-3.68750905990600586 3.73658895492553711 3.30299234390258789 0.725716948509216309 -0.386833131313323975 -0.568941950798034668
-3.53022170066833496 4.38107872009277344 3.30299210548400879 0.832504510879516602 0.373134136199951172 -0.40952068567276001
-0.00300000002607703209 4.2770686149597168 4.55045986175537109 0.764741301536560059 -0.629857897758483887 -0.135830044746398926
-4.61240720748901367 1.99539196491241455 5.49700021743774414 0.642866194248199463 0.332071125507354736 0.690254926681518555
-5.49700021743774414 3.63133883476257324 0.769972562789916992 -0.941739022731781006 -0.28481176495552063 0.17891325056552887
-2.05782389640808105 2.04016733169555664 2.90136337280273438 0.297068297863006592 -0.511206865310668945 -0.80648493766784668
-2.86665558815002441 3.68275237083435059 0.879654943943023682 -0.771449923515319824 0.00274264742620289326 0.636284112930297852
-2.41063833236694336 1.57265388965606689 2.74532032012939453 0.78571784496307373 0.118812993168830872 -0.607067465782165527
-2.02472305297851562 2.07174086570739746 2.89042305946350098 0.267938166856765747 -0.56486201286315918 -0.780474245548248291
-3.40216779708862305 0.0954245850443840027 0.74891895055770874 0.899194598197937012 0.13556671142578125 0.416017740964889526
-2.04627656936645508 1.42601895332336426 2.97818899154663086 0.291310548782348633 0.313427239656448364 -0.903826057910919189
-3.60971927642822266 -0.266275852918624878 0.74832528829574585 0.829686462879180908 0.531650066375732422 -0.170201629400253296
-0.00300000002607703209 5.43754959106445312 1.35681533813476562 0.464394450187683105 0.863011360168457031 -0.198870956897735596
-3.33737492561340332 3.66092491149902344 4.03935480117797852 -0.449804604053497314 0.579824268817901611 -0.679322898387908936
-0.00300023844465613365 -0.543224334716796875 3.35984706878662109 0.573624193668365479 -0.7433319091796875 -0.344111800193786621
-5.49699974060058594 2.26891946792602539 3.23700070381164551 -0.474774748086929321 0.625004827976226807 0.61964339017868042
-5.41866731643676758 4.47012901306152344 5.49700021743774414 0.0498496219515800476 -0.430383026599884033 0.90126878023147583
-3.42831254005432129 4.45500707626342773 3.21973609924316406 0.834259510040283203 -0.549860298633575439 0.0408011376857757568
-2.67781567573547363 3.07400250434875488 3.00621223449707031 -0.471335709095001221 0.820297777652740479 0.323966920375823975
-1.29520583152770996 0.172210216522216797 0.00300000002607703209 0.622660279273986816 -0.667776525020599365 -0.407883226871490479
-4.87896823883056641 4.05558586120605469 0.00299976160749793053 0.194570794701576233 0.308480054140090942 -0.93111884593963623
-1.67690634727478027 5.48323631286621094 5.49700021743774414 0.892833113670349121 -0.386905580759048462 0.230549529194831848
-5.49700021743774414 4.64176845550537109 3.10280394554138184 -0.597621142864227295 -0.296096533536911011 -0.745101213455200195
-4.69631290435791016 1.18194878101348877 5.49700021743774414 0.54096752405166626 0.418854266405105591 0.729325175285339355
-5.49700021743774414 4.15269231796264648 1.19788861274719238 -0.898600876331329346 -0.120533205568790436 0.421886473894119263
-5.42992973327636719 2.84165096282958984 5.49700021743774414 0.469115227460861206 -0.776873469352722168 0.419998288154602051
-3.70128893852233887 3.94078493118286133 3.53545808792114258 -0.0578410513699054718 0.198123306035995483 0.978468954563140869
-2.07936453819274902 1.86226248741149902 2.98136329650878906 0.352351665496826172 -0.284517824649810791 -0.891570508480072021
-5.49700021743774414 4.78678369522094727 1.4929649829864502 -0.322363495826721191 -0.696181893348693848 -0.641414523124694824
-2.02659893035888672 1.84143972396850586 3.0051887035369873 0.243000268936157227 -0.258541911840438843 -0.934936881065368652
-4.98161888122558594 0.24442601203918457 0.00300000002607703209 -0.449850887060165405 -0.31327858567237854 -0.83635556697845459
-0.988202512264251709 1.68237102031707764 1.17092037200927734 -0.118673741817474365 -0.074703611433506012 -0.99011915922164917
-5.19316959381103516 1.54252874851226807 0.00300000002607703209 0.510741114616394043 0.817498981952667236 -0.266155838966369629
-2.44330668449401855 1.96467101573944092 2.18822026252746582 0.877590775489807129 -0.441078722476959229 0.187840327620506287
-1.35735809803009033 0.556479930877685547 0.00299952318891882896 -0.230486407876014709 -0.341437727212905884 -0.911205947399139404
-3.3028876781463623 5.49700021743774414 5.14653253555297852 0.841224789619445801 0.443122923374176025 -0.309811174869537354
-2.01075911521911621 1.25470352172851562 2.89209103584289551 0.248112767934799194 0.557365894317626953 -0.792327821254730225
-5.34996414184570312 1.73573863506317139 5.49700021743774414 0.139002293348312378 -0.827952444553375244 0.54329836368560791
-5.37981128692626953 5.49700021743774414 4.12889242172241211 0.345092713832855225 0.816096246242523193 0.463570863008499146
-3.25827407836914062 4.98802375793457031 5.49700021743774414 0.637128353118896484 0.0570545569062232971 0.76864314079284668
-1.76512396335601807 2.18644022941589355 1.9084857702255249 -0.119506135582923889 -0.711807072162628174 0.692133724689483643
-1.38540244102478027 1.88915348052978516 1.8890153169631958 -0.61586153507232666 -0.411376893520355225 0.67192530632019043
-4.31720876693725586 4.35359477996826172 5.49700021743774414 -0.344103515148162842 0.402776598930358887 0.848152995109558105
-5.31872797012329102 3.92017698287963867 0.00299976160749793053 -0.23942488431930542 0.145040214061737061 -0.960020363330841064
-5.49700021743774414 4.34478425979614258 3.86511945724487305 -0.718609392642974854 -0.0272597931325435638 0.694879472255706787
-3.46809482574462891 5.35251331329345703 5.49700021743774414 -0.225029021501541138 -0.303112208843231201 0.92600482702255249
-3.48636913299560547 0.40629914402961731 0.904120743274688721 0.654403030872344971 0.740337193012237549 0.153809964656829834
-2.07937908172607422 1.50111508369445801 2.99099636077880859 0.330397933721542358 0.191247910261154175 -0.924262642860412598
-5.39758586883544922 2.37973189353942871 5.49700021743774414 0.0367939881980419159 -0.968573451042175293 0.245991095900535583
-0.939635276794433594 5.49700021743774414 0.918782234191894531 0.976834952831268311 0.213979929685592651 -0.00246225506998598576
-3.27078533172607422 5.49700021743774414 1.68243527412414551 0.12847939133644104 0.520377635955810547 -0.844215750694274902
-3.70120334625244141 2.14013671875 5.49700069427490234 0.322733193635940552 -0.401456952095031738 0.857132196426391602
-4.66837310791015625 3.93187522888183594 5.49700021743774414 0.474539279937744141 0.273934304714202881 0.836524069309234619
-3.98742365837097168 2.09542346000671387 5.49700021743774414 0.408690005540847778 -0.227219924330711365 0.883936405181884766
-1.41223490238189697 0.649943828582763672 5.49700021743774414 0.00437415577471256256 -0.983070433139801025 0.183175772428512573
-2.24187111854553223 2.7803192138671875 5.49700021743774414 -0.111856848001480103 0.339868724346160889 0.933797478675842285
-0.00300000002607703209 3.50280284881591797 2.85774064064025879 0.832120895385742188 0.349446237087249756 0.430653154850006104
-5.49700021743774414 1.3464198112487793 4.82819175720214844 -0.599074840545654297 -0.757811903953552246 0.258515298366546631
-4.64165258407592773 4.07861757278442383 2.6209108829498291 0.1680106520652771 -0.446717977523803711 -0.878757894039154053
-2.91479110717773438 5.49700021743774414 1.04183399677276611 0.161606132984161377 0.909887254238128662 0.382084548473358154
-1.97068691253662109 1.18336272239685059 2.84018826484680176 0.201492831110954285 0.657709240913391113 -0.725823104381561279
-2.16325211524963379 1.30600929260253906 2.85799217224121094 0.438129603862762451 0.476707756519317627 -0.76209723949432373
-5.49700021743774414 4.52415943145751953 3.40725946426391602 -0.873000741004943848 -0.292037665843963623 0.390619724988937378
-1.49801945686340332 1.68678498268127441 2.96009492874145508 -0.441591262817382812 -0.0591239072382450104 -0.895266175270080566
-2.34706425666809082 1.81241798400878906 1.90527606010437012 0.508275210857391357 -0.241009414196014404 0.826783418655395508
-4.51505947113037109 2.43621253967285156 5.49699974060058594 -0.0924975126981735229 0.53572845458984375 0.839308798313140869
-0.00300000002607703209 -0.717085838317871094 5.01091480255126953 0.622702360153198242 -0.752625882625579834 -0.214000210165977478
-0.389160394668579102 2.38007926940917969 5.49700021743774414 0.0814988017082214355 -0.835315346717834473 0.543696820735931396
-2.2244110107421875 1.16445624828338623 2.07021403312683105 0.556374073028564453 0.649902880191802979 0.517758846282958984
-1.83347225189208984 1.96973264217376709 2.98256564140319824 0.00820894353091716766 -0.433968305587768555 -0.900890707969665527
-0.00300000002607703209 1.32155907154083252 5.3526911735534668 0.730378329753875732 0.679881811141967773 -0.0656372532248497009
-2.2835085391998291 2.06210660934448242 2.7169187068939209 0.612816751003265381 -0.537594914436340332 -0.579178094863891602
-4.59698295593261719 0.141579315066337585 0.918243169784545898 -0.679542422294616699 -0.598935484886169434 0.42367243766784668
-5.49700021743774414 5.44238662719726562 4.58852338790893555 -0.672218263149261475 -0.607272624969482422 -0.423488587141036987
-4.16068363189697266 4.71452522277832031 5.49700021743774414 0.608678817749023438 -0.39338308572769165 0.68902820348739624
-2.2617497444152832 1.50392782688140869 1.82872128486633301 0.696167647838592529 0.187033861875534058 0.693086624145507812
-4.27482080459594727 3.08316469192504883 3.9636085033416748 0.963143289089202881 -0.140964105725288391 -0.22909410297870636
-4.38236522674560547 4.15905094146728516 2.39714312553405762 0.683546125888824463 -0.679078400135040283 0.267613917589187622
-5.49700021743774414 4.20604848861694336 3.28298783302307129 -0.688413858413696289 0.466810435056686401 -0.555134594440460205
-5.49700021743774414 1.95774745941162109 0.453768014907836914 -0.81998831033706665 0.532867848873138428 0.208976089954376221
-4.61266183853149414 5.49700021743774414 1.88284099102020264 0.394845515489578247 0.627585709095001221 0.670994222164154053
-0.00300000002607703209 3.73592257499694824 3.91896963119506836 0.161700323224067688 -0.574613809585571289 0.802291691303253174
-0.891201019287109375 0.660215854644775391 0.00299904635176062584 -0.147355020046234131 -0.219046533107757568 -0.964523255825042725
-5.03888559341430664 2.51657247543334961 5.49700021743774414 0.304354667663574219 -0.799261987209320068 0.518216609954833984
-4.99407482147216797 5.49700021743774414 4.36661577224731445 0.340865075588226318 0.935754060745239258 -0.0904173180460929871
-5.12554836273193359 4.51583528518676758 5.49700021743774414 -0.838645756244659424 -0.240358322858810425 0.488775193691253662
-1.27691972255706787 2.38306450843811035 1.01002001762390137 0.259063094854354858 -0.864127874374389648 -0.431473582983016968
-1.47716927528381348 1.52658069133758545 2.93110322952270508 -0.504386067390441895 0.168208286166191101 -0.846936047077178955
-5.49700021743774414 4.67876720428466797 3.72878074645996094 -0.89862215518951416 -0.419855028390884399 -0.127279192209243774
-1.94446098804473877 1.15724754333496094 2.81899857521057129 0.16442146897315979 0.698937892913818359 -0.696025490760803223
-0.00300000002607703209 0.705175161361694336 0.0778903961181640625 0.510516166687011719 -0.767105698585510254 0.388486951589584351
-5.49700021743774414 0.706986427307128906 1.46891260147094727 -0.918590188026428223 0.262079477310180664 0.295814752578735352
-3.9698481559753418 3.65843629837036133 3.32683563232421875 0.994721889495849609 -0.0641952976584434509 0.0800458639860153198
-0.934900283813476562 5.49700021743774414 3.70929408073425293 0.224679619073867798 0.927259445190429688 0.299515366554260254
-5.00004673004150391 4.23721790313720703 5.49700021743774414 0.876073300838470459 -0.348750919103622437 0.332968980073928833
-4.54829788208007812 4.63377714157104492 0.00300000002607703209 -0.327029258012771606 -0.787316024303436279 -0.522671401500701904
-2.84507989883422852 1.25104331970214844 0.0654793381690979004 0.969873964786529541 0.2288065105676651 0.0836187750101089478
-2.18442869186401367 0.671700000762939453 5.49700021743774414 0.381446510553359985 0.222790911793708801 0.897141456604003906
-2.34344673156738281 1.87006199359893799 1.65299630165100098 -0.478607118129730225 0.191581428050994873 -0.856873631477355957
-5.49700021743774414 -0.562497854232788086 1.11561882495880127 -0.32110893726348877 -0.916005909442901611 -0.240462496876716614
-3.7796165943145752 4.27469062805175781 5.49700021743774414 0.458289980888366699 0.824011862277984619 0.333128780126571655
-1.60625410079956055 3.93628597259521484 5.49700021743774414 0.431209444999694824 0.38326147198677063 0.816804170608520508
-4.33295536041259766 2.26220250129699707 5.49700021743774414 0.664200484752655029 -0.112770706415176392 0.738999664783477783
-0.328455924987792969 2.47084403038024902 5.49700021743774414 0.781996965408325195 -0.255365461111068726 0.56856769323348999
-0.00299952318891882896 -0.825130939483642578 5.35861682891845703 0.923699080944061279 -0.347666621208190918 0.160959482192993164
-5.49700021743774414 4.71767234802246094 1.88197195529937744 -0.965676009654998779 -0.182329311966896057 -0.185002356767654419
-1.98851382732391357 1.84694218635559082 3.0135645866394043 0.211722671985626221 -0.230160221457481384 -0.949841976165771484
-1.92035019397735596 1.40781581401824951 2.999298095703125 0.0753112137317657471 -0.00406098086386919022 -0.997151792049407959
-1.77634334564208984 1.559592604637146 3.04296445846557617 -0.0930628851056098938 0.131705522537231445 -0.986910820007324219
-1.88977146148681641 2.17197704315185547 2.8289947509765625 0.0138653181493282318 -0.799366593360900879 -0.600683689117431641
-4.37050151824951172 4.16273117065429688 1.52150702476501465 0.568594932556152344 -0.222583174705505371 0.791932165622711182
-0.996828794479370117 5.49700021743774414 4.14033365249633789 0.787368476390838623 0.342754095792770386 0.512416362762451172
-0.00300000002607703209 -0.815297126770019531 3.24252676963806152 0.506055533885955811 -0.188861653208732605 0.841569364070892334
-0.221028566360473633 5.49700021743774414 3.38138723373413086 0.846355080604553223 0.532288253307342529 0.0187690630555152893
-4.8249969482421875 4.30362319946289062 5.49700021743774414 0.272860914468765259 -0.408819586038589478 0.87086939811706543
-4.93073272705078125 1.20096027851104736 0.00300000002607703209 0.463339954614639282 0.0128105804324150085 -0.886088013648986816
-5.49700021743774414 3.82695293426513672 5.07030391693115234 -0.267731130123138428 -0.590275883674621582 0.761507987976074219
-4.45561981201171875 5.49700021743774414 0.45427703857421875 0.228658020496368408 0.577976524829864502 -0.783363699913024902
-3.66885113716125488 4.38038873672485352 0.46602022647857666 0.69959336519241333 -0.713369846343994141 -0.0408980734646320343
-1.97533392906188965 1.55845928192138672 3.03321218490600586 0.192317560315132141 0.0888057425618171692 -0.977306246757507324
-1.89753389358520508 1.440673828125 3.01405954360961914 0.24449688196182251 -0.0403611734509468079 -0.968809723854064941
-1.674285888671875 4.67306137084960938 0.00300000002607703209 0.622813224792480469 -0.16845230758190155 -0.764020621776580811
-1.82855772972106934 4.38541984558105469 5.49699974060058594 0.68958514928817749 0.608314037322998047 0.392971187829971313
-1.68352556228637695 1.6141895055770874 3.0334784984588623 -0.188185930252075195 0.0326745286583900452 -0.981589794158935547
-5.49700021743774414 5.35771942138671875 4.21535968780517578 -0.397674709558486938 -0.600806474685668945 0.693459749221801758
-5.49700021743774414 1.94113683700561523 4.60844039916992188 -0.88949286937713623 -0.276401311159133911 -0.363874673843383789
-3.99784636497497559 2.95236587524414062 3.75637412071228027 0.465033292770385742 0.868341505527496338 -0.172415480017662048
-1.94303631782531738 0.853683352470397949 0.914428234100341797 0.71555483341217041 0.141277149319648743 -0.684121370315551758
-1.78504729270935059 2.0302121639251709 2.94587469100952148 -0.058597128838300705 -0.526116132736206055 -0.848391592502593994
-1.57271468639373779 1.91894781589508057 2.94483613967895508 -0.347146779298782349 -0.34900212287902832 -0.870451927185058594
-0.00300023844465613365 3.88659334182739258 5.27101421356201172 0.896471321582794189 -0.00195504096336662769 0.443097472190856934
-0.00300000002607703209 3.3328852653503418 0.0405585765838623047 0.836293995380401611 -0.491312503814697266 0.243360593914985657
-1.84550917148590088 2.11361050605773926 2.88751816749572754 0.0462641492486000061 -0.6316375732421875 -0.773882150650024414
-2.50285983085632324 1.6862785816192627 2.15022826194763184 0.922585904598236084 0.0692196041345596313 0.379531145095825195
-1.76124012470245361 1.48174762725830078 3.02404308319091797 -0.0798427015542984009 0.231897443532943726 -0.969457924365997314
-5.03604841232299805 3.90276288986206055 0.00300000002607703209 0.462642014026641846 -0.848256230354309082 -0.257728040218353271
-2.07512450218200684 1.4481964111328125 2.97626066207885742 0.394971013069152832 -0.0349886417388916016 -0.918027043342590332
-1.95984137058258057 4.36820125579833984 0.00300023844465613365 -0.544243872165679932 -0.679702579975128174 -0.491734683513641357
-5.49700021743774414 -0.724882125854492188 2.53264093399047852 -0.654561817646026611 -0.307096153497695923 0.690826177597045898
-1.83128452301025391 1.64870059490203857 3.05523014068603516 -0.0551457144320011139 0.0273717902600765228 -0.998103022575378418
-5.49700021743774414 3.31274986267089844 4.27939128875732422 -0.783168613910675049 -0.417679727077484131 0.460641473531723022
-5.49700021743774414 3.37006282806396484 2.1669459342956543 -0.877059340476989746 0.381004005670547485 -0.292579829692840576
-4.01916217803955078 5.49700021743774414 4.88997077941894531 0.197269484400749207 0.39058232307434082 0.899183094501495361
-4.22464084625244141 -0.0870018228888511658 0.7483254075050354 0.258559435606002808 -0.66767805814743042 -0.698106706142425537
-4.43402385711669922 4.14302587509155273 1.43050885200500488 -0.118036925792694092 -0.987160444259643555 -0.107617810368537903
-1.93628144264221191 1.9186551570892334 2.99872040748596191 0.0668843835592269897 -0.491901308298110962 -0.868078172206878662
-2.18454456329345703 2.26552295684814453 2.39223384857177734 0.480319976806640625 -0.865930020809173584 -0.139492005109786987
-4.4445347785949707 3.17997026443481445 2.41014695167541504 0.672159314155578613 -0.561301648616790771 -0.482848137617111206
-5.47725820541381836 5.22537422180175781 5.49700021743774414 0.0138396238908171654 0.535399794578552246 0.844485342502593994
-5.49699926376342773 3.38462448120117188 4.3644866943359375 -0.814926743507385254 0.38870394229888916 0.429888427257537842
-1.34234344959259033 2.402587890625 1.49651026725769043 0.81365889310836792 -0.458017885684967041 0.358020812273025513
-0.00299976160749793053 3.4845428466796875 4.64967489242553711 0.994701027870178223 0.0677759051322937012 0.0773071050643920898
-1.51378428936004639 1.80302739143371582 2.9535975456237793 -0.442539095878601074 -0.235739529132843018 -0.865208745002746582
-5.49057197570800781 2.96795058250427246 0.00300000002607703209 0.265651881694793701 0.911746740341186523 -0.313284099102020264
-1.58359956741333008 2.17469525337219238 2.74844813346862793 -0.338642358779907227 -0.706311941146850586 -0.621646881103515625
-1.71217536926269531 1.97123658657073975 2.96768856048583984 -0.150291010737419128 -0.430023372173309326 -0.890220522880554199
-1.26959145069122314 1.22220408916473389 1.65299606323242188 -0.5126800537109375 0.163802921772003174 -0.842809438705444336
-0.00300000002607703209 4.7153172492980957 0.683241367340087891 0.826434671878814697 0.362220495939254761 0.431047618389129639
-1.8435673713684082 -0.785669803619384766 5.49700021743774414 -0.861591935157775879 0.0492832809686660767 0.505203485488891602
-0.00300000002607703209 3.77068758010864258 2.48462891578674316 0.660708427429199219 -0.733430027961730957 -0.159827440977096558
-4.56579399108886719 0.493787169456481934 0.659864425659179688 0.710370004177093506 0.214515969157218933 0.670341253280639648
-4.64233636856079102 4.86144590377807617 0.00299976160749793053 0.103952087461948395 -0.190151304006576538 -0.976235866546630859
-2.32384371757507324 0.967322885990142822 0.279247581958770752 0.992507874965667725 0.0621638186275959015 0.105184338986873627
-2.9725947380065918 4.0242609977722168 3.10531520843505859 -0.783826529979705811 -0.612609505653381348 -0.101614639163017273
-4.72815799713134766 2.43835568428039551 5.49700021743774414 -0.670423984527587891 0.177664190530776978 0.720394015312194824
-3.38159728050231934 4.43666458129882812 3.30299210548400879 0.556192576885223389 0.400576561689376831 -0.72814023494720459
-5.49700021743774414 1.98435449600219727 0.33382105827331543 -0.986943364143371582 0.105770260095596313 0.121472179889678955
-1.71007037162780762 1.7517704963684082 3.03555631637573242 -0.149994328618049622 -0.125377446413040161 -0.980704963207244873
-0.00300000002607703209 -0.765657663345336914 2.79973173141479492 0.906106233596801758 -0.0991201251745223999 0.411274552345275879
-5.49700021743774414 4.59055328369140625 3.3721613883972168 -0.329230129718780518 0.545876979827880859 0.77047121524810791
-4.17414569854736328 -0.410357147455215454 0.193322733044624329 0.920101940631866455 0.215384304523468018 0.327142149209976196
-0.00300023844465613365 5.02785301208496094 2.89672064781188965 0.61894524097442627 0.574980735778808594 0.535073816776275635
-0.00299976160749793053 1.3930206298828125 0.480576992034912109 0.809188127517700195 0.54756772518157959 0.213035672903060913
-1.33395838737487793 4.32319784164428711 5.49700021743774414 0.559232831001281738 0.453013569116592407 0.694289088249206543
-1.46272182464599609 1.59991753101348877 2.9348762035369873 0.233593478798866272 -0.281427562236785889 -0.930716216564178467
