ply
format ascii 1.0
element vertex 376
property float x
property float y
property float z
property float nx
property float ny
property float nz
end_header
-0.634482383728027344 5.49700021743774414 4.7117462158203125 0.369227617979049683 0.904697954654693604 -0.212585404515266418
-0.00300023844465613365 2.63708925247192383 4.66109561920166016 0.941203176975250244 -0.179884448647499084 -0.285968780517578125
-0.00299976160749793053 2.17258739471435547 3.56000375747680664 0.863445103168487549 0.0344202257692813873 -0.503267168998718262
-0.286733865737915039 5.49700021743774414 4.18491983413696289 0.54451829195022583 0.781353235244750977 -0.304937630891799927
-0.422154426574707031 0.196586370468139648 0.00300047686323523521 0.423795133829116821 -0.246071428060531616 -0.871691763401031494
-5.49700021743774414 5.22630214691162109 3.38532781600952148 -0.508814811706542969 0.685488104820251465 -0.520781636238098145
-5.49700021743774414 3.41206765174865723 5.12845706939697266 -0.779936790466308594 0.611954331398010254 -0.131188780069351196
-0.83770298957824707 5.49700021743774414 5.29504108428955078 0.589030623435974121 0.806539177894592285 -0.0503733344376087189
-0.00300000002607703209 -0.00924754142761230469 2.24928545951843262 0.556933879852294922 -0.479690819978713989 -0.678027570247650146
-3.21677279472351074 5.49699974060058594 5.33920001983642578 -0.0107864448800683022 0.99941331148147583 -0.0325064398348331451
-5.49700021743774414 -0.330860376358032227 1.39215326309204102 -0.519297778606414795 -0.504694342613220215 -0.689647316932678223
-1.44139432907104492 5.49700021743774414 4.37801265716552734 0.376866638660430908 0.875894129276275635 -0.301298946142196655
-0.00300000002607703209 2.59065437316894531 5.19589900970458984 0.995807826519012451 -0.0474739000201225281 -0.0781857296824455261
-0.00300000002607703209 2.13569784164428711 4.29016447067260742 0.928985893726348877 -0.0107282986864447594 -0.369959533214569092
-0.00300023844465613365 3.88256430625915527 2.90601754188537598 0.774923026561737061 0.247196435928344727 -0.581711471080780029
-2.96468353271484375 -0.913766384124755859 0.00300000002607703209 -0.0627475902438163757 -0.504519283771514893 -0.861117303371429443
-0.00300000002607703209 2.44991016387939453 5.32686805725097656 0.986226856708526611 0.155894562602043152 -0.0552579872310161591
-5.49700021743774414 1.96701681613922119 4.19093656539916992 -0.832842469215393066 -0.385609716176986694 -0.397087663412094116
-5.49700021743774414 -0.924913167953491211 5.25667810440063477 -0.494232505559921265 -0.868262290954589844 -0.0430678986012935638
-5.49700021743774414 3.30144977569580078 4.89892053604125977 -0.95660632848739624 0.23874238133430481 -0.167052090167999268
-5.49700021743774414 2.44554686546325684 4.39140462875366211 -0.904321849346160889 0.0196976233273744583 -0.42639651894569397
-0.00300000002607703209 -0.442089080810546875 3.30272507667541504 0.680555343627929688 -0.559418201446533203 -0.47317621111869812
-3.81331396102905273 2.90976524353027344 3.30299210548400879 -0.176956400275230408 0.457018375396728516 -0.871676921844482422
-1.97914016246795654 5.49700021743774414 5.25185489654541016 0.406758368015289307 0.909810066223144531 -0.082421034574508667
-5.49700021743774414 1.433005690574646 4.753692626953125 -0.969541966915130615 -0.147692367434501648 -0.195385217666625977
-5.49700069427490234 5.36164236068725586 5.21958160400390625 -0.540353775024414062 0.839310586452484131 -0.0597960203886032104
-5.49700021743774414 1.65098321437835693 5.01078701019287109 -0.8863067626953125 -0.436044067144393921 -0.155967563390731812
-2.01304364204406738 5.49700021743774414 5.10648441314697266 -0.0151277594268321991 0.9925994873046875 -0.120488420128822327
-0.00300023844465613365 0.401322841644287109 3.69733285903930664 0.597580075263977051 -0.617304444313049316 -0.511696457862854004
-5.49700021743774414 3.60464143753051758 3.88463068008422852 -0.843646705150604248 0.373625516891479492 -0.385569930076599121
-3.87869358062744141 3.77691650390625 4.4129786491394043 -0.367404252290725708 0.810209989547729492 -0.456698894500732422
-2.44160914421081543 5.49700021743774414 2.11018967628479004 0.037257317453622818 0.740702390670776367 -0.670799434185028076
-2.04745125770568848 5.49700021743774414 2.57436823844909668 0.123351752758026123 0.791987240314483643 -0.59794694185256958
-0.00300023844465613365 2.18447303771972656 5.46054363250732422 0.917161405086517334 -0.398515015840530396 -0.000871462223585695028
-1.76745688915252686 5.49700021743774414 4.46642494201660156 0.437656164169311523 0.80869603157043457 -0.39302399754524231
-5.49700069427490234 2.15051722526550293 5.22096061706542969 -0.983210504055023193 0.147931590676307678 -0.106833420693874359
-0.00299976160749793053 2.39336681365966797 4.81189727783203125 0.956539452075958252 -0.224333316087722778 -0.186297684907913208
-0.00299952318891882896 0.364237785339355469 2.76636123657226562 0.687742531299591064 -0.497574359178543091 -0.528611361980438232
-0.00300023844465613365 -0.685304164886474609 4.48642921447753906 0.612355887889862061 -0.743924140930175781 -0.267576456069946289
-1.23691034317016602 5.49700069427490234 3.65233945846557617 0.400054752826690674 0.831386566162109375 -0.38568452000617981
-1.7640995979309082 5.49700021743774414 4.77783107757568359 0.176906630396842957 0.946086883544921875 -0.271336853504180908
-4.05714750289916992 5.49700021743774414 5.10490512847900391 -0.362803667783737183 0.928009569644927979 -0.084685884416103363
-2.02868103981018066 2.12236404418945312 2.84562516212463379 0.0197490677237510681 0.112939059734344482 -0.993405640125274658
-5.49700021743774414 1.43851971626281738 5.10398578643798828 -0.967520296573638916 -0.216312751173973083 -0.130817830562591553
-0.00300023844465613365 3.12439227104187012 4.138702392578125 0.854421496391296387 0.31617438793182373 -0.412307679653167725
-0.00299976160749793053 2.78112602233886719 4.26447486877441406 0.883959949016571045 0.176327809691429138 -0.433039605617523193
-3.81241512298583984 3.20307207107543945 4.38529491424560547 -0.35469210147857666 -0.00450018700212240219 -0.93497234582901001
-5.49700021743774414 1.15176379680633545 3.00542235374450684 -0.747266709804534912 -0.388275265693664551 -0.539290964603424072
-4.22086095809936523 0.753602981567382812 0.683926761150360107 -0.29477381706237793 -0.447587370872497559 -0.844259381294250488
-0.00300023844465613365 1.86675834655761719 5.33885383605957031 0.960127830505371094 -0.27598842978477478 -0.0445525050163269043
-2.06409549713134766 1.9293205738067627 2.96156406402587891 0.39902186393737793 -0.144468188285827637 -0.905489087104797363
-5.35611677169799805 5.49700021743774414 4.52343416213989258 -0.602648615837097168 0.748149693012237549 -0.27764478325843811
-1.89938616752624512 2.55656599998474121 1.65299630165100098 0.0674229338765144348 -0.0059422091580927372 -0.997706770896911621
-2.92934894561767578 3.1685938835144043 3.30299258232116699 0.0640865638852119446 0.192442312836647034 -0.979213416576385498
-5.49700021743774414 2.17588686943054199 3.19448208808898926 -0.674654722213745117 0.100836090743541718 -0.73121345043182373
-5.10456657409667969 5.49700021743774414 4.21416139602661133 -0.567129373550415039 0.776836037635803223 -0.273660421371459961
-3.57483172416687012 3.01295661926269531 3.87407565116882324 -0.50116574764251709 0.364219307899475098 -0.784969568252563477
-0.00300023844465613365 2.98857641220092773 5.02301406860351562 0.980900824069976807 0.12611272931098938 -0.148084819316864014
-0.00299976160749793053 2.54389739036560059 4.80516147613525391 0.94008105993270874 -0.185167163610458374 -0.286287814378738403
-5.49699926376342773 0.941587090492248535 1.62931537628173828 -0.665788233280181885 -0.269620656967163086 -0.695723176002502441
-1.58646702766418457 5.49699974060058594 4.24561977386474609 0.441094130277633667 0.839318454265594482 -0.317774266004562378
-4.37168073654174805 -0.446623265743255615 0.987359941005706787 -0.320788264274597168 -0.472652286291122437 -0.820789098739624023
-3.97318220138549805 3.2196347713470459 4.3919825553894043 -0.495212584733963013 0.0222630612552165985 -0.868486523628234863
-3.83559536933898926 2.69526791572570801 3.30299258232116699 -0.454823583364486694 0.0299785826355218887 -0.890076875686645508
-0.00300000002607703209 -0.686479091644287109 3.44496631622314453 0.554325580596923828 -0.719470202922821045 -0.418432533740997314
-0.00300023844465613365 1.82324135303497314 3.89316153526306152 0.849632918834686279 -0.147363722324371338 -0.506367266178131104
-0.325458765029907227 2.55461311340332031 0.00300000002607703209 0.471393942832946777 -0.0242878887802362442 -0.881588280200958252
-0.5947723388671875 5.49700021743774414 5.34781169891357422 0.649008452892303467 0.760259091854095459 -0.0281793326139450073
-2.51852130889892578 0.3079833984375 0.00300000002607703209 0.0546662956476211548 -0.261840313673019409 -0.963561773300170898
-5.49700021743774414 4.66531944274902344 5.35368967056274414 -0.847196757793426514 0.529855906963348389 -0.0388634428381919861
-1.92198729515075684 5.49700021743774414 4.58178615570068359 0.293464243412017822 0.916150987148284912 -0.273031413555145264
-0.0747537612915039062 5.49700021743774414 4.17013311386108398 0.467628955841064453 0.823485612869262695 -0.321239173412322998
-0.00299976160749793053 1.47905969619750977 3.15619778633117676 0.634310424327850342 -0.48430827260017395 -0.602574288845062256
-3.72775769233703613 5.49700021743774414 4.87996673583984375 -0.223082736134529114 0.962075293064117432 -0.156987950205802917
-0.00300047686323523521 0.75547480583190918 2.27156758308410645 0.566878259181976318 -0.386162042617797852 -0.727686703205108643
-5.49700021743774414 1.32361221313476562 3.18359541893005371 -0.597982823848724365 -0.322324365377426147 -0.733841657638549805
-5.49700021743774414 5.23565244674682617 4.56434392929077148 -0.832217574119567871 0.496334999799728394 -0.247114270925521851
-2.96051955223083496 5.49700021743774414 3.60691595077514648 0.10489942878484726 0.823940515518188477 -0.556882500648498535
-5.49700021743774414 1.98466658592224121 2.7543492317199707 -0.64555060863494873 0.0419798120856285095 -0.762562811374664307
-0.00300000002607703209 3.56906437873840332 4.10368537902832031 0.874689102172851562 0.0479345060884952545 -0.482308268547058105
-5.49700021743774414 3.85064101219177246 4.30712699890136719 -0.756147265434265137 0.561450541019439697 -0.336176425218582153
-0.00300000002607703209 3.32130575180053711 3.38341975212097168 0.675769925117492676 0.352359026670455933 -0.647439718246459961
-5.49700021743774414 1.85293066501617432 5.45717620849609375 -0.990409970283508301 -0.138131022453308105 -0.00282058981247246265
-0.00300000002607703209 0.191840887069702148 4.52065086364746094 0.666849732398986816 -0.703946352005004883 -0.244481116533279419
-0.00300000002607703209 0.0806829929351806641 4.02511978149414062 0.509378552436828613 -0.763496816158294678 -0.396996349096298218
-0.00299976160749793053 3.30594539642333984 5.08816814422607422 0.97437286376953125 0.182602539658546448 -0.131353780627250671
-1.22301030158996582 5.49700021743774414 3.44328451156616211 0.369991987943649292 0.817915558815002441 -0.440590649843215942
-0.00300023844465613365 -0.466045379638671875 2.03609299659729004 0.454441845417022705 -0.592996358871459961 -0.664708912372589111
-3.15891551971435547 5.49700021743774414 1.86071181297302246 -0.269212931394577026 0.622316539287567139 -0.735014617443084717
-0.00300023844465613365 4.49941301345825195 3.85630655288696289 0.74395453929901123 0.463928461074829102 -0.480938702821731567
-2.00031828880310059 5.49700021743774414 5.29065418243408203 0.273764610290527344 0.959954440593719482 -0.0595017857849597931
-0.00300023844465613365 5.48852252960205078 1.18875741958618164 0.425633132457733154 0.507508337497711182 -0.74918067455291748
-0.00300023844465613365 1.81916570663452148 5.32913589477539062 0.982491672039031982 -0.176908999681472778 -0.0584236234426498413
-2.18962645530700684 5.49700021743774414 5.17217731475830078 0.0109285134822130203 0.99261629581451416 -0.120803609490394592
-5.49700021743774414 0.29006505012512207 3.3413846492767334 -0.704200387001037598 -0.5087776780128479 -0.495224297046661377
-0.0870800018310546875 -0.480888605117797852 0.00300000002607703209 0.41008874773979187 -0.438954651355743408 -0.799466073513031006
-1.01578700542449951 5.49700021743774414 3.38736963272094727 0.38345983624458313 0.722185373306274414 -0.575679481029510498
-5.49700021743774414 3.90334582328796387 5.21929168701171875 -0.98302757740020752 0.167642414569854736 -0.0745168328285217285
-0.00300000002607703209 5.20943927764892578 1.26632928848266602 0.442238479852676392 0.507526397705078125 -0.739487707614898682
-0.00299976160749793053 2.22227048873901367 4.01220321655273438 0.8726615309715271 -0.274059891700744629 -0.404169619083404541
-0.00300023844465613365 -0.355899572372436523 4.46076297760009766 0.769844770431518555 -0.589097917079925537 -0.245565950870513916
-0.00300000002607703209 3.40270829200744629 5.22630405426025391 0.975023031234741211 0.207762405276298523 -0.0785169675946235657
-5.49700021743774414 3.96517419815063477 2.96859622001647949 -0.625013470649719238 0.513432681560516357 -0.588000893592834473
-4.82386493682861328 2.65489435195922852 0.00300047686323523521 -0.430982351303100586 0.134168237447738647 -0.892330169677734375
-0.00299976160749793053 2.46015787124633789 2.29078984260559082 0.687658905982971191 -0.113862209022045135 -0.717049956321716309
-5.49700021743774414 0.905848979949951172 3.42503762245178223 -0.612935423851013184 -0.471950560808181763 -0.633697748184204102
-5.49700021743774414 4.3875732421875 4.94689083099365234 -0.706402063369750977 0.687948405742645264 -0.166502594947814941
-5.49700021743774414 0.604264259338378906 5.20485544204711914 -0.701087534427642822 -0.709942340850830078 -0.0667690485715866089
-0.00300023844465613365 5.25848293304443359 4.58278751373291016 0.790649235248565674 0.568829238414764404 -0.226510703563690186
-5.49700021743774414 3.28629541397094727 3.44252514839172363 -0.67575758695602417 0.431500047445297241 -0.597628116607666016
-0.00299976160749793053 4.36410999298095703 4.03436279296875 0.707750558853149414 0.614880979061126709 -0.347865641117095947
-5.49700021743774414 -0.0920016765594482422 4.00124406814575195 -0.527339339256286621 -0.771805047988891602 -0.355288952589035034
-5.49700021743774414 5.48341751098632812 4.27242374420166016 -0.682629585266113281 0.689332127571105957 -0.242565527558326721
-3.43253183364868164 -0.397903203964233398 0.00300095370039343834 -0.226275548338890076 -0.432952612638473511 -0.872554540634155273
-2.16799592971801758 5.49700021743774414 5.32713794708251953 0.0889823287725448608 0.994313716888427734 -0.0585014820098876953
-5.49700021743774414 0.613879203796386719 4.62179374694824219 -0.880910933017730713 -0.393937975168228149 -0.262314319610595703
-0.00299976160749793053 -0.632676839828491211 1.20314836502075195 0.359947443008422852 -0.510358691215515137 -0.781006932258605957
-0.00300000002607703209 2.47109413146972656 4.21361494064331055 0.820418953895568848 0.134105965495109558 -0.555813252925872803
-2.87263298034667969 5.49700021743774414 4.5478520393371582 -0.112372905015945435 0.946574687957763672 -0.302272558212280273
-0.00300000002607703209 -0.585437297821044922 3.93193745613098145 0.475411742925643921 -0.813686251640319824 -0.334512084722518921
-0.00300000002607703209 0.47097468376159668 4.68872594833374023 0.714258670806884766 -0.666053116321563721 -0.214960038661956787
-5.49700069427490234 3.8843684196472168 4.15143918991088867 -0.852279782295227051 0.382480591535568237 -0.356830209493637085
-2.08779144287109375 5.49700021743774414 5.2682647705078125 0.0401715077459812164 0.99549490213394165 -0.0858846455812454224
-5.49700021743774414 1.57948601245880127 4.87564325332641602 -0.902611374855041504 -0.329272866249084473 -0.277258217334747314
-2.2863013744354248 5.49700021743774414 2.12111735343933105 0.121484033763408661 0.754458487033843994 -0.645007014274597168
-0.00300023844465613365 3.58365726470947266 5.02843284606933594 0.88135063648223877 0.442291557788848877 -0.166130080819129944
-0.00300000002607703209 2.34629631042480469 4.41123199462890625 0.908330261707305908 0.141579240560531616 -0.393562525510787964
-1.74828195571899414 -0.338711738586425781 0.00299952318891882896 0.191804930567741394 -0.329507768154144287 -0.924465000629425049
-5.49700021743774414 3.52437734603881836 4.0972743034362793 -0.854212522506713867 0.149025112390518188 -0.498108893632888794
-5.49700021743774414 0.315770626068115234 1.8451845645904541 -0.452484339475631714 -0.350573867559432983 -0.819973111152648926
-0.00300023844465613365 4.16692256927490234 2.64618325233459473 0.683654606342315674 0.213757067918777466 -0.697799623012542725
-0.491422891616821289 5.49700021743774414 2.72087812423706055 0.457674503326416016 0.695792734622955322 -0.55353999137878418
-0.00299976160749793053 -0.185316562652587891 4.6230778694152832 0.684911429882049561 -0.69833141565322876 -0.207917347550392151
-2.11336541175842285 5.49700021743774414 4.23522138595581055 0.192861616611480713 0.85582965612411499 -0.479958325624465942
-5.49700021743774414 0.728391170501708984 4.710479736328125 -0.667710423469543457 -0.715008139610290527 -0.207186415791511536
-4.98107719421386719 5.49700021743774414 3.97920370101928711 -0.602020025253295898 0.685271680355072021 -0.409847050905227661
-0.00300023844465613365 -0.0384852886199951172 4.51002216339111328 0.852628707885742188 -0.470762342214584351 -0.226731389760971069
-3.81908607482910156 5.49700021743774414 4.65604734420776367 -0.233240142464637756 0.947798192501068115 -0.217434227466583252
-0.00300000002607703209 4.03983402252197266 3.78007602691650391 0.66005396842956543 0.567980349063873291 -0.491657525300979614
-0.00300000002607703209 -0.655597448348999023 2.65778017044067383 0.395797699689865112 -0.701272845268249512 -0.592925429344177246
-3.30232453346252441 5.49700021743774414 4.22746706008911133 -0.176132157444953918 0.936371326446533203 -0.303621798753738403
-0.00300000002607703209 5.07448720932006836 1.41292762756347656 0.539813876152038574 0.537576615810394287 -0.647774934768676758
-0.00300000002607703209 4.59703207015991211 5.11402034759521484 0.683248043060302734 0.724719882011413574 -0.0891807153820991516
-0.718723773956298828 4.04765081405639648 0.00300095370039343834 0.19125935435295105 0.269448131322860718 -0.943831324577331543
-0.00300000002607703209 0.283927679061889648 2.86330270767211914 0.668155133724212646 -0.525837421417236328 -0.526368439197540283
-1.50373315811157227 5.49700021743774414 5.27129268646240234 0.12971891462802887 0.989609241485595703 -0.0620208792388439178
-5.49700021743774414 3.74902915954589844 2.32688784599304199 -0.484272807836532593 0.247155547142028809 -0.839281797409057617
-0.00300000002607703209 3.64301824569702148 3.39533782005310059 0.830308496952056885 0.16478709876537323 -0.532384276390075684
-5.49700021743774414 1.06481099128723145 3.46720790863037109 -0.837808072566986084 -0.266711682081222534 -0.476384848356246948
-0.00300000002607703209 1.02582359313964844 3.97729611396789551 0.755573630332946777 -0.480528950691223145 -0.445197045803070068
-3.14352297782897949 3.2916567325592041 3.30299258232116699 0.0338639989495277405 0.493082731962203979 -0.869323074817657471
-0.00300023844465613365 3.18498325347900391 3.34552311897277832 0.765050888061523438 0.0935548767447471619 -0.637137830257415771
-0.00299976160749793053 5.02160453796386719 4.77981853485107422 0.643740475177764893 0.74829179048538208 -0.160179957747459412
-5.49700021743774414 2.67842292785644531 2.10541129112243652 -0.654557228088378906 -0.0687647685408592224 -0.75287860631942749
-2.26371955871582031 5.49700021743774414 3.79003095626831055 0.320629358291625977 0.745703279972076416 -0.584057748317718506
-0.00300000002607703209 5.09824657440185547 3.16123199462890625 0.539629101753234863 0.605798125267028809 -0.5846443772315979
-2.30715465545654297 3.54292869567871094 0.00300000002607703209 -0.0792808830738067627 0.179956987500190735 -0.980474412441253662
-0.00299976160749793053 2.65896081924438477 4.9443659782409668 0.974193334579467773 -0.144927158951759338 -0.173041820526123047
-5.49700021743774414 2.73778200149536133 4.52560710906982422 -0.938230991363525391 -0.186766326427459717 -0.291274607181549072
-3.63872861862182617 3.54268884658813477 4.42351007461547852 -0.0685583353042602539 0.462062537670135498 -0.88419342041015625
-5.49700021743774414 2.77635836601257324 5.13649320602416992 -0.971106588840484619 0.193272858858108521 -0.13999156653881073
-5.49700021743774414 1.09767961502075195 3.7771294116973877 -0.688143730163574219 -0.42446213960647583 -0.588464200496673584
-1.39849424362182617 5.49700021743774414 4.38869476318359375 0.393854618072509766 0.877534747123718262 -0.273516535758972168
-5.49700021743774414 3.13636279106140137 5.11912059783935547 -0.938484489917755127 0.301335394382476807 -0.168652921915054321
-5.49700021743774414 2.76399827003479004 3.28033351898193359 -0.800592005252838135 0.0573355220258235931 -0.596460461616516113
-5.49700021743774414 0.211209774017333984 4.53377342224121094 -0.83385002613067627 -0.478779077529907227 -0.274708479642868042
-5.49700021743774414 0.301103353500366211 0.926561832427978516 -0.509074509143829346 -0.464021116495132446 -0.72493278980255127
-5.49700021743774414 1.6067042350769043 4.84944438934326172 -0.900710880756378174 -0.350298494100570679 -0.256925761699676514
-5.49700021743774414 2.91126608848571777 1.89624547958374023 -0.596032619476318359 0.110779382288455963 -0.795281767845153809
-2.43696713447570801 5.49700021743774414 5.44767856597900391 0.204908475279808044 0.97876352071762085 -0.00587242376059293747
-4.3306121826171875 0.729161739349365234 0.00299952318891882896 -0.371166229248046875 -0.263386130332946777 -0.890428781509399414
-2.84184670448303223 5.49700021743774414 4.21933460235595703 0.141667798161506653 0.887357771396636963 -0.438778340816497803
-0.00300023844465613365 4.63987970352172852 4.93051815032958984 0.592172920703887939 0.791289567947387695 -0.152289465069770813
-3.56586360931396484 0.736124038696289062 0.00300000002607703209 -0.232861906290054321 -0.291732043027877808 -0.927721798419952393
-5.49700021743774414 3.3755345344543457 4.99185991287231445 -0.968711018562316895 0.1651296466588974 -0.185286596417427063
-5.49700021743774414 2.65276479721069336 4.68847942352294922 -0.956327497959136963 -0.126258000731468201 -0.263622045516967773
-2.36746644973754883 5.49700021743774414 3.84482479095458984 0.312687218189239502 0.8006858229637146 -0.511007785797119141
-1.22411799430847168 5.49700021743774414 5.14820957183837891 0.26069718599319458 0.959211945533752441 -0.1093134805560112
-3.61281538009643555 5.49700021743774414 2.99877429008483887 -0.348146378993988037 0.689965724945068359 -0.63461911678314209
-5.49700021743774414 0.929122209548950195 5.13610744476318359 -0.968328297138214111 -0.227077856659889221 -0.10380709171295166
-5.49700021743774414 2.72317790985107422 4.73109722137451172 -0.978548049926757812 -0.0186994429677724838 -0.20516832172870636
-0.00300023844465613365 4.36337614059448242 2.1675724983215332 0.623086810111999512 0.300687938928604126 -0.722045421600341797
-5.49700021743774414 1.4795374870300293 5.05960226058959961 -0.973517775535583496 -0.144794255495071411 -0.176911622285842896
-3.72180318832397461 5.49700021743774414 4.34035158157348633 -0.427983522415161133 0.814015030860900879 -0.392695337533950806
-4.37581062316894531 5.49700021743774414 3.56911516189575195 -0.324566274881362915 0.762565135955810547 -0.559599161148071289
-0.00299976160749793053 4.86854362487792969 5.16464614868164062 0.71901392936706543 0.690623760223388672 -0.0778316184878349304
-5.49700069427490234 1.37513422966003418 4.18422937393188477 -0.870654702186584473 -0.0881409645080566406 -0.483933418989181519
-2.37453150749206543 1.78055417537689209 2.78824162483215332 -0.0163269676268100739 -0.0831922069191932678 -0.996399760246276855
-0.529855728149414062 2.72733068466186523 0.00300000002607703209 0.408583223819732666 0.00747984182089567184 -0.912690401077270508
-5.49700021743774414 1.57606363296508789 2.20051050186157227 -0.589949131011962891 -0.243424192070960999 -0.769873142242431641
-3.57364892959594727 5.49699926376342773 3.81880831718444824 -0.26894611120223999 0.884281814098358154 -0.381724655628204346
-0.00300023844465613365 2.02596569061279297 4.632720947265625 0.92585146427154541 -0.266822695732116699 -0.26759067177772522
-5.49700021743774414 4.27569293975830078 4.88835811614990234 -0.718015432357788086 0.668458104133605957 -0.193952411413192749
-3.30799460411071777 5.49700069427490234 1.8070521354675293 -0.0658441334962844849 0.496210604906082153 -0.865701794624328613
-5.49700021743774414 1.83816015720367432 3.7464592456817627 -0.785379290580749512 -0.122805468738079071 -0.606710910797119141
-3.789154052734375 2.88019180297851562 3.30299258232116699 -0.519386589527130127 0.0248454064130783081 -0.854178130626678467
-5.49700021743774414 3.56600379943847656 5.34885454177856445 -0.849291980266571045 0.526369929313659668 -0.0404695048928260803
-5.49700021743774414 2.52632498741149902 5.38412857055664062 -0.987705409526824951 0.150544196367263794 -0.0421243757009506226
-0.00300000002607703209 4.56231069564819336 3.46399974822998047 0.649993896484375 0.431432992219924927 -0.625598490238189697
-2.19861721992492676 2.06867456436157227 2.79575514793395996 0.456269651651382446 -0.213560134172439575 -0.863834500312805176
-5.49700069427490234 0.161958217620849609 3.34083151817321777 -0.589026331901550293 -0.548933565616607666 -0.593059778213500977
-0.311416149139404297 4.22917366027832031 0.00300000002607703209 0.282914340496063232 0.200172990560531616 -0.938024640083312988
-0.00300000002607703209 -0.371657371520996094 4.52787256240844727 0.581934094429016113 -0.788557469844818115 -0.198821008205413818
-0.00300023844465613365 3.13242912292480469 5.11425209045410156 0.989869534969329834 -0.0668381378054618835 -0.125263705849647522
-5.49700021743774414 1.76131045818328857 4.97719001770019531 -0.931727349758148193 -0.331546306610107422 -0.148192897439002991
-2.12989521026611328 5.49700021743774414 4.35809803009033203 -0.0841079577803611755 0.93733745813369751 -0.338118821382522583
-3.44588565826416016 5.49700021743774414 5.37362957000732422 -0.317147552967071533 0.948044717311859131 -0.0250726193189620972
-3.87195110321044922 1.66226506233215332 0.00300000002607703209 -0.197475656867027283 -0.031261935830116272 -0.979809165000915527
-0.00300023844465613365 4.45516872406005859 0.0316915512084960938 0.359623849391937256 0.412299662828445435 -0.837066113948822021
-1.29516756534576416 5.49700021743774414 3.69569730758666992 0.247171387076377869 0.839024603366851807 -0.484710246324539185
-3.88331198692321777 -0.409579187631607056 0.748324334621429443 -0.127507477998733521 -0.407067418098449707 -0.904454529285430908
-0.00299976160749793053 3.58149862289428711 4.84005451202392578 0.765406966209411621 0.602518558502197266 -0.226105213165283203
-2.95865225791931152 2.86685299873352051 3.12007713317871094 -0.303526788949966431 0.393990188837051392 -0.867550134658813477
-1.05483627319335938 2.55342507362365723 0.00300047686323523521 0.283656448125839233 -0.120041809976100922 -0.951382637023925781
-3.50345587730407715 3.47039961814880371 4.33596897125244141 -0.66513592004776001 0.545006334781646729 -0.510453104972839355
-0.00300000002607703209 -0.704965114593505859 4.03315448760986328 0.625254452228546143 -0.686856329441070557 -0.370520293712615967
-5.49700021743774414 2.01019382476806641 3.7077934741973877 -0.756804466247558594 -0.404693156480789185 -0.513293683528900146
-0.00299976160749793053 1.21330690383911133 5.14182090759277344 0.781616151332855225 -0.613930404186248779 -0.110298007726669312
-0.00300000002607703209 -0.932404994964599609 2.24751687049865723 0.426938027143478394 -0.70296865701675415 -0.56882244348526001
-0.00299976160749793053 0.447564125061035156 0.328977584838867188 0.478835791349411011 -0.242486730217933655 -0.843751430511474609
-3.3160405158996582 5.49700021743774414 2.09269237518310547 -0.241286203265190125 0.680595278739929199 -0.691788256168365479
-0.761473655700683594 4.05661773681640625 0.00300000002607703209 0.322989523410797119 0.364798218011856079 -0.873269736766815186
-0.560970306396484375 5.49700021743774414 1.28180789947509766 0.257674694061279297 0.597276985645294189 -0.759515643119812012
-0.00300000002607703209 1.52305948734283447 4.33112859725952148 0.806304693222045898 -0.458548069000244141 -0.373639345169067383
-0.705236911773681641 -0.949365377426147461 0.00299952318891882896 0.219583690166473389 -0.47234266996383667 -0.853624880313873291
-3.82228279113769531 2.74090123176574707 3.30299258232116699 -0.492390483617782593 0.238248839974403381 -0.837131500244140625
-5.49700021743774414 2.43367910385131836 3.59659004211425781 -0.870270073413848877 -0.00561642833054065704 -0.492542803287506104
-0.00299976160749793053 2.07726335525512695 5.14675045013427734 0.987573027610778809 -0.0893698111176490784 -0.129277154803276062
-1.75014615058898926 1.28592026233673096 2.93208956718444824 0.464620113372802734 -0.490873873233795166 -0.737001359462738037
-1.87159228324890137 5.49700021743774414 3.7430415153503418 0.134948760271072388 0.808308124542236328 -0.573085308074951172
-0.382140636444091797 5.49700021743774414 3.46659183502197266 0.522261738777160645 0.689142882823944092 -0.5023193359375
-5.49700069427490234 2.25793290138244629 4.07307863235473633 -0.931872427463531494 -0.0936711058020591736 -0.350484728813171387
-5.07320213317871094 5.49700021743774414 4.43624687194824219 -0.656830847263336182 0.717907607555389404 -0.230612128973007202
-0.00300047686323523521 1.47358083724975586 1.72464585304260254 0.550880610942840576 -0.290377169847488403 -0.782439529895782471
-0.00300000002607703209 3.13662147521972656 2.06624364852905273 0.547643065452575684 0.296313464641571045 -0.782486677169799805
-0.00300000002607703209 1.81891584396362305 4.09658718109130859 0.7480735182762146 -0.453910589218139648 -0.484098374843597412
-0.00300000002607703209 4.21461677551269531 4.39171123504638672 0.871819198131561279 0.362007170915603638 -0.329972773790359497
-0.00300000002607703209 2.72787237167358398 5.03012371063232422 0.970864832401275635 -0.165435463190078735 -0.173356667160987854
-3.81025552749633789 5.49700069427490234 4.33827018737792969 -0.249064624309539795 0.924280405044555664 -0.289262086153030396
-3.78762245178222656 3.03520750999450684 4.2196044921875 -0.608954966068267822 0.561462283134460449 -0.56029808521270752
-4.57243204116821289 5.49700021743774414 3.07710623741149902 -0.401342689990997314 0.672347724437713623 -0.621990859508514404
-5.49700069427490234 2.07042646408081055 4.70731830596923828 -0.922245979309082031 -0.290010333061218262 -0.255648821592330933
-2.13000273704528809 5.49700021743774414 4.82145833969116211 0.067691214382648468 0.980127394199371338 -0.186462268233299255
-5.49700021743774414 2.59664273262023926 3.34395480155944824 -0.793919503688812256 -0.13221275806427002 -0.593474149703979492
-2.12201428413391113 5.49700021743774414 4.10625648498535156 0.00656944792717695236 0.929769814014434814 -0.36808285117149353
-0.00300000002607703209 4.43143844604492188 4.21078824996948242 0.834249198436737061 0.465179324150085449 -0.296034574508666992
-2.11352014541625977 5.49700021743774414 4.73562526702880859 0.286065816879272461 0.939652860164642334 -0.187667012214660645
-2.44346809387207031 2.59684991836547852 0.912406384944915771 0.218021288514137268 0.0439648814499378204 -0.974953234195709229
-2.5278623104095459 5.49700021743774414 4.43993568420410156 -0.217676848173141479 0.90165477991104126 -0.373678237199783325
-0.56310725212097168 5.49700021743774414 1.8734591007232666 0.351689904928207397 0.529318630695343018 -0.772098422050476074
-5.49700021743774414 -0.652398586273193359 1.15123748779296875 -0.498894691467285156 -0.532901525497436523 -0.683461785316467285
-0.00300000002607703209 2.79607629776000977 5.22850894927978516 0.954420387744903564 0.288857698440551758 -0.0751198306679725647
-4.14471006393432617 5.49699974060058594 5.13533353805541992 -0.350844264030456543 0.928798675537109375 -0.119337111711502075
-3.89506840705871582 3.72125124931335449 4.43798303604125977 -0.119700327515602112 0.6791037917137146 -0.724216759204864502
-5.49700021743774414 -0.155295133590698242 2.88917684555053711 -0.620513856410980225 -0.573431432247161865 -0.534919619560241699
-4.87079095840454102 5.49700021743774414 3.16381621360778809 -0.551542520523071289 0.629799783229827881 -0.546948850154876709
-5.49700021743774414 2.89391303062438965 2.90471529960632324 -0.640907466411590576 0.345685303211212158 -0.685375332832336426
-2.92339611053466797 5.49699974060058594 2.00731086730957031 -0.019739735871553421 0.708045423030853271 -0.705890953540802002
-0.781792402267456055 5.49700021743774414 1.37073755264282227 0.352982103824615479 0.614716708660125732 -0.705355942249298096
-4.52611684799194336 -0.186541944742202759 0.951268672943115234 -0.317902088165283203 -0.414679080247879028 -0.852630913257598877
-3.11929607391357422 2.96148562431335449 3.30299258232116699 0.226609468460083008 0.248806312680244446 -0.941670596599578857
-0.668047428131103516 5.49700021743774414 0.828417301177978516 0.391883999109268188 0.367310076951980591 -0.843510687351226807
-2.9462578296661377 2.87069797515869141 2.7749025821685791 -0.321279376745223999 0.271554708480834961 -0.907214224338531494
-2.60767126083374023 5.49700021743774414 3.73866057395935059 0.315341353416442871 0.796696126461029053 -0.515591979026794434
-0.00300000002607703209 1.49985814094543457 4.57921457290649414 0.939931988716125488 -0.156461641192436218 -0.303393453359603882
-5.49700021743774414 0.578754901885986328 4.56550788879394531 -0.880387187004089355 -0.347226649522781372 -0.323035717010498047
-5.49700021743774414 1.25521469116210938 4.06823539733886719 -0.666566610336303711 -0.538142383098602295 -0.515840828418731689
-0.00299976160749793053 0.405744075775146484 4.22681903839111328 0.822280585765838623 -0.463441789150238037 -0.330267041921615601
-5.49700021743774414 0.488801956176757812 4.85155010223388672 -0.731248080730438232 -0.664235353469848633 -0.15513746440410614
-1.69309580326080322 2.07432389259338379 2.89804720878601074 0.233391061425209045 -0.210293635725975037 -0.949370920658111572
-3.16832756996154785 3.35941958427429199 3.30299210548400879 -0.235710322856903076 0.409223437309265137 -0.88146287202835083
-3.28778433799743652 2.76475286483764648 1.19956648349761963 0.0657318830490112305 0.129657045006752014 -0.989377796649932861
-0.00300023844465613365 3.02086281776428223 4.72175979614257812 0.963811755180358887 0.161753758788108826 -0.211902275681495667
-5.49700021743774414 2.11050128936767578 3.94932222366333008 -0.757374286651611328 -0.395067393779754639 -0.519909560680389404
-5.49700021743774414 4.37050437927246094 3.73194551467895508 -0.688476502895355225 0.566251635551452637 -0.453165799379348755
-2.326171875 0.0754275321960449219 0.00300000002607703209 0.164304256439208984 -0.340225577354431152 -0.925878345966339111
-3.20789861679077148 5.49699974060058594 4.12198734283447266 0.0751820802688598633 0.917543113231658936 -0.390464127063751221
-0.00299976160749793053 2.8371124267578125 3.39289450645446777 0.854189038276672363 0.144604042172431946 -0.499450474977493286
-0.00299976160749793053 3.95007705688476562 5.43400239944458008 0.945768415927886963 0.324625343084335327 -0.011850171722471714
-3.67645573616027832 3.33893108367919922 4.41267585754394531 -0.10925852507352829 0.738521218299865723 -0.665318667888641357
-5.49700021743774414 3.08216142654418945 5.33393573760986328 -0.943010210990905762 0.330328673124313354 -0.0401835553348064423
-3.2681128978729248 5.49700021743774414 3.45091819763183594 -0.108198836445808411 0.854926347732543945 -0.507340133190155029
-3.69617533683776855 2.63806676864624023 3.00171685218811035 -0.306982815265655518 0.311815947294235229 -0.899184286594390869
-5.49700021743774414 0.453109979629516602 4.92603969573974609 -0.724152505397796631 -0.675687074661254883 -0.138022199273109436
-5.49700021743774414 0.621432304382324219 4.70006704330444336 -0.784823238849639893 -0.588966131210327148 -0.192798778414726257
-0.00300023844465613365 1.68512284755706787 4.99890804290771484 0.984786868095397949 -0.0195794980973005295 -0.172659933567047119
-2.02813124656677246 2.12172913551330566 2.84646081924438477 0.344592541456222534 -0.087536148726940155 -0.934662163257598877
-5.26383113861083984 5.49700021743774414 3.3056182861328125 -0.626048088073730469 0.585881531238555908 -0.514593601226806641
-0.00300000002607703209 2.6342308521270752 3.9844672679901123 0.830644011497497559 -0.0685829296708106995 -0.552563965320587158
-3.85375094413757324 2.92613387107849121 3.87565898895263672 -0.618664145469665527 0.427598178386688232 -0.659101307392120361
-0.00300023844465613365 0.756042718887329102 1.53379511833190918 0.510825693607330322 -0.224990114569664001 -0.829720795154571533
-5.17894411087036133 5.49700021743774414 3.78990268707275391 -0.401343494653701782 0.838172972202301025 -0.369309365749359131
-0.00300000002607703209 2.71175050735473633 3.69477200508117676 0.769452333450317383 -0.172453060746192932 -0.614982187747955322
-3.61225438117980957 2.66409945487976074 2.63804078102111816 -0.275039196014404297 0.229817882180213928 -0.933561563491821289
-0.00299952318891882896 2.7847287654876709 2.67009735107421875 0.747072279453277588 0.0302996840327978134 -0.66405189037322998
-5.49700021743774414 1.35275709629058838 4.80638837814331055 -0.785135209560394287 -0.586668491363525391 -0.198451012372970581
-1.20653247833251953 5.49699974060058594 3.84681510925292969 0.389780908823013306 0.766514182090759277 -0.510418295860290527
-0.00299976160749793053 3.13816642761230469 4.66419792175292969 0.920207738876342773 0.267087936401367188 -0.286149919033050537
-4.14185953140258789 5.49700069427490234 3.62420177459716797 -0.231009915471076965 0.881599605083465576 -0.411602407693862915
-5.49700021743774414 3.40115237236022949 3.88081836700439453 -0.838045775890350342 0.363854378461837769 -0.406557798385620117
-0.769583821296691895 -0.103673458099365234 0.00300000002607703209 0.221748203039169312 -0.344725340604782104 -0.912136077880859375
-0.00299976160749793053 0.547123193740844727 4.39708375930786133 0.866065502166748047 -0.434015035629272461 -0.248115792870521545
-5.49700021743774414 4.51420974731445312 3.70524859428405762 -0.624338924884796143 0.582166969776153564 -0.520847856998443604
-0.00300023844465613365 0.581215620040893555 2.58724880218505859 0.66413581371307373 -0.451569437980651855 -0.595826029777526855
-5.49700021743774414 3.80103325843811035 2.73493742942810059 -0.617881417274475098 0.466310173273086548 -0.633069813251495361
-3.24916648864746094 0.408235788345336914 0.00299952318891882896 -0.143880337476730347 -0.417117953300476074 -0.897391259670257568
-3.93740940093994141 -0.494810312986373901 0.776658535003662109 -0.288833498954772949 -0.556028008460998535 -0.779363870620727539
-0.486617565155029297 5.49700021743774414 5.05226612091064453 0.67662358283996582 0.724221229553222656 -0.132981613278388977
-0.00299976160749793053 0.996844291687011719 4.8195033073425293 0.693237602710723877 -0.687877833843231201 -0.215048015117645264
-5.49700021743774414 0.812802433967590332 1.80849242210388184 -0.661866724491119385 -0.326458334922790527 -0.674801766872406006
-3.81280326843261719 1.52470874786376953 0.00300047686323523521 -0.262786030769348145 -0.0445150583982467651 -0.96382671594619751
-0.00299976160749793053 4.87177085876464844 0.994579315185546875 0.559890508651733398 0.421239554882049561 -0.713498353958129883
-5.49700021743774414 2.19884514808654785 4.54017400741577148 -0.960634112358093262 0.0381612926721572876 -0.275183141231536865
-4.24050617218017578 5.49700021743774414 4.11984777450561523 -0.325480222702026367 0.885996818542480469 -0.330260872840881348
-5.49700021743774414 2.63368105888366699 3.46751165390014648 -0.812090933322906494 -0.204158350825309753 -0.546651363372802734
-1.42530357837677002 5.49700021743774414 4.0148472785949707 0.409289568662643433 0.853154540061950684 -0.323433756828308105
-2.43096351623535156 1.84435546398162842 2.67785000801086426 0.362821221351623535 -0.341566503047943115 -0.867002367973327637
-5.49700021743774414 1.25084185600280762 2.80666208267211914 -0.523870468139648438 -0.494729131460189819 -0.693399488925933838
-5.49700021743774414 4.62630033493041992 3.76932811737060547 -0.798821330070495605 0.386422246694564819 -0.461044847965240479
-2.18175935745239258 2.60244035720825195 1.65299630165100098 -0.0539211109280586243 0.0486151836812496185 -0.997361063957214355
-5.49700021743774414 2.01682496070861816 2.62986183166503906 -0.672189116477966309 -0.264534682035446167 -0.691507935523986816
-2.80695986747741699 3.49031543731689453 2.38439679145812988 -0.226597443222999573 0.198063939809799194 -0.953637361526489258
-0.00300000002607703209 3.59250974655151367 2.40400409698486328 0.669510424137115479 0.137558013200759888 -0.72995448112487793
-5.49700021743774414 2.34348177909851074 4.16648626327514648 -0.866606235504150391 -0.0277715101838111877 -0.498219162225723267
-3.77911806106567383 3.20145344734191895 4.37854146957397461 -0.398136913776397705 -0.110447295010089874 -0.910652697086334229
-3.84412050247192383 5.49700021743774414 5.16299152374267578 -0.0917867571115493774 0.992000997066497803 -0.0866556465625762939
-5.49700021743774414 1.65724515914916992 5.39774608612060547 -0.997686088085174561 -0.0608402080833911896 -0.0303460154682397842
-2.44526815414428711 1.69701552391052246 2.69931530952453613 0.0501762963831424713 -0.442480891942977905 -0.895373106002807617
-1.63488030433654785 1.26834964752197266 2.88744401931762695 0.168416798114776611 -0.558428049087524414 -0.812276959419250488
-3.6887056827545166 3.28914356231689453 4.39831113815307617 -0.696345150470733643 0.402719944715499878 -0.594070792198181152
-0.00300023844465613365 0.409550666809082031 4.9525146484375 0.815606296062469482 -0.549182236194610596 -0.182168141007423401
-0.00300000002607703209 5.31102943420410156 5.18277549743652344 0.809500455856323242 0.58226621150970459 -0.075333036482334137
-1.61548030376434326 5.49700021743774414 3.65268802642822266 0.305334120988845825 0.714483857154846191 -0.629510819911956787
-4.32492542266845703 1.95531535148620605 0.00300000002607703209 -0.249912619590759277 0.0637769848108291626 -0.966165721416473389
-3.25734138488769531 0.975864171981811523 0.00300000002607703209 0.0155855286866426468 -0.386726349592208862 -0.922062814235687256
-5.49700021743774414 -0.0464472770690917969 2.97717833518981934 -0.60871046781539917 -0.559205770492553711 -0.562814831733703613
-0.00300023844465613365 0.189907312393188477 2.38750243186950684 0.676178634166717529 -0.328717082738876343 -0.659338772296905518
-1.33145356178283691 0.320597648620605469 0.00299952318891882896 0.359390467405319214 -0.280989378690719604 -0.889878332614898682
-5.49700021743774414 3.04875731468200684 5.30642509460449219 -0.954374551773071289 0.294781118631362915 -0.0476795434951782227
-1.64121699333190918 5.49699926376342773 5.09155368804931641 0.157749682664871216 0.982468605041503906 -0.0993505194783210754
-2.30259323120117188 2.24300599098205566 1.65299630165100098 0.15884813666343689 -0.277618199586868286 -0.9474678635597229
-4.54187965393066406 0.504868686199188232 0.983989417552947998 -0.322459310293197632 -0.460309892892837524 -0.827124416828155518
-1.52019369602203369 5.49700021743774414 3.58681297302246094 0.366605490446090698 0.717466175556182861 -0.592319726943969727
-5.49700021743774414 1.80411362648010254 4.03997802734375 -0.896075725555419922 -0.164958983659744263 -0.412112653255462646
-5.49700021743774414 5.00778293609619141 5.2864227294921875 -0.705041468143463135 0.70638573169708252 -0.0627353489398956299
-3.97693920135498047 5.49700021743774414 4.55346584320068359 -0.391861468553543091 0.866492807865142822 -0.309248805046081543
-5.49700021743774414 3.51663374900817871 5.09508466720581055 -0.938001930713653564 0.31979784369468689 -0.133722603321075439
-0.00300000002607703209 2.3999941349029541 4.40787220001220703 0.903807342052459717 -0.290058434009552002 -0.314640045166015625
-0.00300000002607703209 2.9134521484375 4.39881992340087891 0.84069591760635376 0.368502408266067505 -0.396782487630844116
-0.00299976160749793053 2.60718679428100586 2.00647115707397461 0.600091814994812012 -0.0184760428965091705 -0.799717724323272705
-5.49699974060058594 3.27181339263916016 3.97496318817138672 -0.883026123046875 0.220122665166854858 -0.414500772953033447
-3.63523316383361816 3.05507850646972656 3.30299258232116699 -0.0972596779465675354 0.267170488834381104 -0.958728551864624023
-3.35636019706726074 3.32250237464904785 4.06476116180419922 -0.450704604387283325 0.432965308427810669 -0.780644893646240234
-3.64873790740966797 1.85915517807006836 0.00300000002607703209 -0.237027004361152649 -0.186221450567245483 -0.95348823070526123
-4.44584941864013672 5.49700021743774414 5.41888523101806641 -0.511856734752655029 0.858942031860351562 -0.0148772010579705238
-0.00300000002607703209 0.410722732543945312 3.48080134391784668 0.580172538757324219 -0.536131799221038818 -0.613157868385314941
-5.49700021743774414 2.30608320236206055 4.31159877777099609 -0.891716957092285156 -0.102570541203022003 -0.440817564725875854
-1.7137986421585083 0.0590996742248535156 0.00299952318891882896 0.178125113248825073 -0.256950467824935913 -0.949867308139801025
-3.00389242172241211 2.85281944274902344 3.27576541900634766 -0.300652116537094116 0.360659122467041016 -0.882911801338195801
-5.49700021743774414 3.65708446502685547 5.03804206848144531 -0.898525655269622803 0.411318004131317139 -0.153196483850479126
-3.58031511306762695 3.22640848159790039 4.30491256713867188 -0.592777431011199951 -0.0667875409126281738 -0.802592277526855469
-5.49700021743774414 2.85541129112243652 4.39008331298828125 -0.933154165744781494 0.0842378288507461548 -0.34946712851524353
-5.45177316665649414 1.54934263229370117 0.00299952318891882896 -0.366714656352996826 -0.117135539650917053 -0.922929883003234863
-0.00300023844465613365 0.561898946762084961 1.23714208602905273 0.436520755290985107 -0.432044893503189087 -0.789168417453765869
-0.00300000002607703209 1.23546314239501953 1.01361417770385742 0.396496117115020752 -0.217372983694076538 -0.89193040132522583
-0.00300000002607703209 0.112276554107666016 4.20085048675537109 0.797616481781005859 -0.53369516134262085 -0.281029194593429565
-1.38364052772521973 3.52460837364196777 0.00300000002607703209 0.151856526732444763 0.306745618581771851 -0.939599215984344482
-0.230292081832885742 5.49700021743774414 5.44998550415039062 0.48359331488609314 0.875283896923065186 -0.00395344570279121399
-5.49700021743774414 -0.428047418594360352 4.66434478759765625 -0.577514708042144775 -0.78682631254196167 -0.217671990394592285
-3.69631338119506836 2.80051350593566895 3.30299258232116699 -0.215149596333503723 0.108422122895717621 -0.970543801784515381
-1.65328645706176758 5.24223852157592773 0.00300000002607703209 0.142511948943138123 0.429140090942382812 -0.891924381256103516
-3.62417483329772949 2.66040158271789551 1.51051247119903564 -0.411385029554367065 0.061665169894695282 -0.909373283386230469
-5.49700021743774414 2.89862775802612305 5.1853785514831543 -0.979312896728515625 0.138370439410209656 -0.147647932171821594
-5.49700021743774414 0.931671857833862305 5.37281990051269531 -0.895030379295349121 -0.444571256637573242 -0.0357353389263153076
-0.00299976160749793053 0.259839057922363281 4.11107635498046875 0.71591031551361084 -0.559838652610778809 -0.417196720838546753
-5.49700021743774414 4.24153327941894531 4.58192062377929688 -0.882474005222320557 0.418994098901748657 -0.213737145066261292
