ply
format ascii 1.0
element vertex 375
property float x
property float y
property float z
property float nx
property float ny
property float nz
end_header
-5.49970006942749023 2.61540770530700684 4.03588151931762695 -0.992338180541992188 -0.112284369766712189 -0.0515466183423995972
-3.75803422927856445 5.49970006942749023 3.77527999877929688 -0.311201363801956177 0.898946166038513184 0.308301001787185669
-3.75802230834960938 5.49970006942749023 3.77514028549194336 -0.29169502854347229 0.94935840368270874 -0.116758696734905243
-0.000300000014249235392 3.82358789443969727 0.333982944488525391 0.98063957691192627 0.069782741367816925 -0.182965219020843506
-5.49970006942749023 1.6044154167175293 4.83859777450561523 -0.993031144142150879 -0.108573369681835175 -0.0458357520401477814
-3.09074211120605469 5.49970006942749023 4.48633670806884766 -0.346169352531433105 0.93422996997833252 -0.0859141051769256592
-5.49970006942749023 2.53290104866027832 4.35162782669067383 -0.997519195079803467 -0.0107898786664009094 -0.0695628523826599121
-0.000300000014249235392 4.71511077880859375 3.15176224708557129 0.98483806848526001 0.12939414381980896 -0.115546450018882751
-4.41417694091796875 5.49970006942749023 4.28205156326293945 0.00530261266976594925 0.994421601295471191 -0.105344347655773163
-1.40253925323486328 5.49970006942749023 1.5097811222076416 -0.134391665458679199 0.918689548969268799 0.371414035558700562
-1.40235960483551025 5.49970006942749023 1.50974249839782715 0.399902582168579102 0.883693397045135498 0.243236184120178223
-1.40253341197967529 5.49970006942749023 1.50920450687408447 0.309942871332168579 0.785749673843383789 -0.535287678241729736
-1.40259885787963867 5.49970006942749023 1.5093386173248291 0.169104486703872681 0.959616005420684814 -0.224812611937522888
-3.23978495597839355 -0.11394047737121582 0.000300000014249235392 0.10401172935962677 -0.0771452561020851135 -0.991579592227935791
-1.24949181079864502 5.49970006942749023 4.76185989379882812 0.105892278254032135 0.993579626083374023 -0.0398282967507839203
-0.000300000014249235392 0.938474535942077637 4.35220241546630859 0.99010622501373291 -0.0986578390002250671 -0.0997806265950202942
-5.49970006942749023 3.82147002220153809 5.05939102172851562 -0.995499968528747559 0.0862362384796142578 -0.0392807275056838989
-5.49970006942749023 3.73863959312438965 2.34280657768249512 -0.985405921936035156 0.0821259841322898865 -0.149098917841911316
-2.56405878067016602 5.49970006942749023 2.90269088745117188 -0.291569173336029053 0.933708906173706055 0.207786038517951965
-2.56395649909973145 5.49970006942749023 2.90258121490478516 0.0282883197069168091 0.989529311656951904 -0.141532346606254578
-4.156005859375 2.49824976921081543 2.27196359634399414 0.106856778264045715 0.978442072868347168 -0.176727712154388428
-4.15616130828857422 2.49820160865783691 2.27196407318115234 -0.390492916107177734 0.90094912052154541 -0.189224407076835632
-2.87870240211486816 0.578623056411743164 0.000300000014249235392 0.493721455335617065 -0.729845166206359863 -0.47282680869102478
-2.8788907527923584 0.578841924667358398 0.000300000014249235392 0.307519257068634033 -0.600671827793121338 -0.737987279891967773
-2.87963581085205078 0.580154180526733398 0.000300000014249235392 0.036249164491891861 -0.254090279340744019 -0.966500937938690186
-2.20439624786376953 3.3018343448638916 0.000300000014249235392 0.0381688661873340607 0.0541215874254703522 -0.997804522514343262
-2.60211658477783203 5.49970006942749023 4.36170434951782227 -0.216877654194831848 0.975360393524169922 0.0404489412903785706
-0.635870218276977539 1.0130842924118042 5.49970006942749023 0.752485215663909912 -0.322300314903259277 0.574359238147735596
-0.636204957962036133 1.01322019100189209 5.49970006942749023 0.189567312598228455 -0.105533108115196228 0.976179838180541992
-2.93123292922973633 -0.374021291732788086 0.000300000014249235392 0.0166639257222414017 -0.209222763776779175 -0.977725982666015625
-5.32993793487548828 5.49970006942749023 5.19237136840820312 -0.128689303994178772 0.97874140739440918 0.159700185060501099
-5.32992458343505859 5.49970006942749023 5.1924128532409668 -0.0837938636541366577 0.953923225402832031 0.288112908601760864
-1.72691774368286133 5.49970006942749023 4.88668346405029297 -0.332663357257843018 0.91592252254486084 0.224546194076538086
-1.72679638862609863 5.49970006942749023 4.88639068603515625 -0.213337361812591553 0.968554973602294922 -0.128017261624336243
-1.33633852005004883 5.49970006942749023 2.67978978157043457 -0.973547279834747314 0.174770459532737732 -0.147176548838615417
-1.3347618579864502 5.49970006942749023 2.67997455596923828 -0.292377740144729614 0.932830333709716797 -0.210577011108398438
-1.33394801616668701 5.49970006942749023 2.68046259880065918 0.130739614367485046 0.935822844505310059 0.327326536178588867
-2.76663112640380859 1.4277794361114502 1.65029633045196533 0.79288250207901001 -0.23755200207233429 -0.561165153980255127
-2.76706314086914062 1.42789959907531738 1.65029633045196533 -0.0267969630658626556 -0.0232115965336561203 -0.99937129020690918
-1.98843026161193848 5.49970006942749023 5.39235448837280273 -0.240648284554481506 0.876696407794952393 -0.416523367166519165
-1.98790156841278076 5.49970006942749023 5.39225912094116211 0.369880795478820801 0.568550169467926025 -0.73480534553527832
-1.98802840709686279 5.49970006942749023 5.39258003234863281 0.217055395245552063 0.952706515789031982 -0.212690398097038269
-0.546212673187255859 3.13221263885498047 0.000300000014249235392 -0.0346940867602825165 -0.452966988086700439 -0.890851974487304688
-0.546099424362182617 3.13263654708862305 0.000300000014249235392 0.10988299548625946 0.0129984300583600998 -0.993859469890594482
-5.49970006942749023 0.824561476707458496 4.29899358749389648 -0.991713047027587891 -0.0935443863272666931 -0.0880601406097412109
-0.000300000014249235392 -0.185933589935302734 4.84959030151367188 0.981569766998291016 -0.186780601739883423 -0.0404199510812759399
-3.25394725799560547 5.23478078842163086 0.000300000014249235392 0.0716694816946983337 0.0235802829265594482 -0.997149646282196045
-3.25389814376831055 5.23472690582275391 0.000300000014249235392 0.226765647530555725 -0.148884251713752747 -0.962502360343933105
-3.2542271614074707 5.23491477966308594 0.000300000014249235392 -0.264165520668029785 0.287193357944488525 -0.920726120471954346
-3.25418543815612793 5.23480606079101562 0.000300000014249235392 -0.145943492650985718 -0.051030769944190979 -0.987975895404815674
-3.32913064956665039 4.05830621719360352 3.30029201507568359 0.727253496646881104 0.30366554856300354 -0.615540027618408203
-3.32949352264404297 4.05818605422973633 3.30029201507568359 -0.0292027946561574936 0.0917832702398300171 -0.99535059928894043
-0.000300000014249235392 -0.540397882461547852 2.10249185562133789 0.98350369930267334 -0.113631106913089752 -0.140742123126983643
-5.49970006942749023 1.98258411884307861 1.5443565845489502 -0.982669949531555176 0.0108852740377187729 -0.185043841600418091
-0.000300000014249235392 1.4978187084197998 3.52379369735717773 0.989410817623138428 -0.0310209859162569046 -0.141788065433502197
-4.00439691543579102 2.25064611434936523 0.000300000014249235392 0.0507527813315391541 -0.703480720520019531 -0.708899855613708496
-4.00439929962158203 2.2509002685546875 0.000300000014249235392 0.062460143119096756 -0.142572268843650818 -0.987811684608459473
-4.00488901138305664 2.25054001808166504 0.000300000014249235392 -0.133271828293800354 -0.361638039350509644 -0.922744035720825195
-2.09879612922668457 1.17901074886322021 2.77633070945739746 0.358414888381958008 0.689130067825317383 -0.629792451858520508
-0.68734431266784668 5.08321380615234375 0.000300000014249235392 0.142035797238349915 0.384874731302261353 -0.91197437047958374
-0.687578201293945312 5.08286857604980469 0.000300000014249235392 -0.152989879250526428 -0.319009989500045776 -0.935321569442749023
-0.687569856643676758 5.08303165435791016 0.000300000014249235392 -0.132094532251358032 0.197446390986442566 -0.971373200416564941
-0.000300000014249235392 0.832213878631591797 2.80399584770202637 0.987419724464416504 -0.0610016770660877228 -0.14587971568107605
-3.2456517219543457 5.49970006942749023 4.22572660446166992 -0.245081052184104919 0.950925052165985107 -0.188882976770401001
-3.24556350708007812 5.49970006942749023 4.22566795349121094 -0.135932579636573792 0.954815447330474854 -0.264290899038314819
-3.61971092224121094 2.77619457244873047 3.3002924919128418 0.891288042068481445 0.291142255067825317 -0.347623080015182495
-3.62035799026489258 2.77600908279418945 3.3002924919128418 0.368201702833175659 0.19866064190864563 -0.908273816108703613
-4.04886054992675781 2.15257596969604492 5.49970006942749023 -0.0394356921315193176 -0.228240892291069031 0.972805619239807129
-4.79228496551513672 -0.394767284393310547 0.000300000014249235392 -0.0675311461091041565 -0.0800845250487327576 -0.994497835636138916
-4.28576135635375977 -0.858926296234130859 0.000300000014249235392 -0.0155409397557377815 -0.439807385206222534 -0.897957563400268555
-5.49970006942749023 1.89482176303863525 4.79867124557495117 -0.996161699295043945 -0.0503235086798667908 -0.071620255708694458
-0.578376293182373047 5.49970006942749023 5.24063587188720703 0.309864223003387451 0.885671496391296387 -0.345789015293121338
-4.91012907028198242 5.49970006942749023 4.58553934097290039 -0.131759792566299438 0.977170825004577637 -0.166662722826004028
-2.3704993724822998 5.49970006942749023 2.1071007251739502 -0.0854884535074234009 0.965534329414367676 0.245835930109024048
-2.37061285972595215 5.49970006942749023 2.10697746276855469 -0.418453365564346313 0.897355914115905762 -0.14017544686794281
-2.37048578262329102 5.49970006942749023 2.10693693161010742 -0.626989066600799561 0.739597022533416748 -0.244705811142921448
-2.37022852897644043 5.49970006942749023 2.10698986053466797 0.00987410079687833786 0.988326191902160645 -0.152032092213630676
-2.80514192581176758 1.37543463706970215 1.41952657699584961 0.935874342918395996 -0.0255209505558013916 -0.351408332586288452
-2.8049159049987793 1.37619173526763916 1.41940760612487793 0.578679144382476807 0.371511876583099365 -0.726022899150848389
-2.80501937866210938 1.37584471702575684 1.41982603073120117 0.92170107364654541 -0.319878727197647095 -0.219418883323669434
-0.000300000014249235392 3.35035371780395508 4.47480535507202148 0.996170401573181152 0.0613579824566841125 -0.0622854940593242645
-1.22944140434265137 0.589875698089599609 5.49970006942749023 -0.0752894356846809387 -0.672625601291656494 0.73614269495010376
-1.2293475866317749 0.590076684951782227 5.49970006942749023 0.200572535395622253 -0.231271684169769287 0.951989471912384033
-2.75445365905761719 3.19002795219421387 3.3002924919128418 -0.471048891544342041 0.317066818475723267 -0.823153376579284668
-2.75425314903259277 3.18988609313964844 3.3002924919128418 0.095698036253452301 -0.0862108245491981506 -0.991670131683349609
-2.75392651557922363 3.18882107734680176 3.3002924919128418 0.314302891492843628 -0.913880884647369385 -0.256973564624786377
-2.75422382354736328 3.18980932235717773 3.3002924919128418 0.219681471586227417 -0.248781502246856689 -0.943317413330078125
-0.000300000014249235392 3.14865827560424805 4.70539331436157227 0.992839694023132324 0.105824321508407593 -0.0554129071533679962
-5.49970006942749023 1.03238010406494141 4.82176685333251953 -0.996702671051025391 -0.0719774588942527771 -0.0374537184834480286
-2.07460165023803711 5.49970006942749023 4.22569799423217773 0.200273588299751282 0.974257886409759521 0.10349871963262558
-2.07599687576293945 5.49970006942749023 4.22526073455810547 -0.886435389518737793 0.455954551696777344 -0.0796102136373519897
-2.07549643516540527 5.49970006942749023 4.22530889511108398 -0.266831070184707642 0.963647842407226562 -0.0135595817118883133
-0.000300000014249235392 0.988356351852416992 4.12764835357666016 0.994580984115600586 -0.0596397779881954193 -0.085156269371509552
-3.47701501846313477 5.49970006942749023 3.80185699462890625 -0.318458884954452515 0.356302052736282349 -0.878426253795623779
-3.4768671989440918 5.49970006942749023 3.80256056785583496 -0.369654178619384766 0.922531843185424805 -0.110862866044044495
-3.47660994529724121 5.49970006942749023 3.80258512496948242 -0.0767093226313591003 0.99267578125 -0.0933291912078857422
-2.28992271423339844 5.49970006942749023 3.36040496826171875 -0.593833208084106445 0.653304576873779297 -0.469633191823959351
-2.2896571159362793 5.49970006942749023 3.36057591438293457 -0.0231539011001586914 0.988828003406524658 -0.147251397371292114
-0.000300000014249235392 -0.930264472961425781 5.23150539398193359 0.986155271530151367 -0.165413007140159607 -0.011667872779071331
-0.000300000014249235392 -0.249141931533813477 5.19999170303344727 0.992280364036560059 -0.123243138194084167 -0.0138095654547214508
-2.01483678817749023 3.75687289237976074 0.000300000014249235392 0.19212011992931366 -0.170489296317100525 -0.966448724269866943
-4.07339143753051758 2.52387762069702148 2.94413018226623535 -0.488174259662628174 0.865465342998504639 0.112496718764305115
-5.49970006942749023 3.58423328399658203 3.98940086364746094 -0.989608049392700195 0.0956174731254577637 -0.107392087578773499
-1.77482128143310547 5.49970006942749023 4.80755949020385742 -0.0778422430157661438 0.996807634830474854 -0.0177459567785263062
-1.77480232715606689 5.49970006942749023 4.8074946403503418 -0.0147377047687768936 0.97369074821472168 -0.227396145462989807
-0.000300000014249235392 0.758187294006347656 3.24488067626953125 0.986148715019226074 -0.115830153226852417 -0.118718519806861877
-3.31958198547363281 1.80952751636505127 0.000300000014249235392 -0.742085516452789307 -0.0305714718997478485 -0.669607698917388916
-3.31926393508911133 1.80945873260498047 0.000300000014249235392 -0.0456778407096862793 -0.265001684427261353 -0.963165402412414551
-0.000300000014249235392 1.84487533569335938 1.02529525756835938 0.982393503189086914 0.00646209763363003731 -0.186711430549621582
-4.59616661071777344 -0.0238645076751708984 0.000300000014249235392 -0.130571678280830383 -0.830814540386199951 -0.541015863418579102
-4.59611701965332031 -0.0234332084655761719 0.000300000014249235392 -0.0756366625428199768 -0.0969065576791763306 -0.992415249347686768
-0.943575739860534668 5.49970006942749023 5.07016563415527344 -0.759238362312316895 0.520315468311309814 -0.390933305025100708
-0.943152666091918945 5.49970006942749023 5.07034921646118164 -0.0482036508619785309 0.989418148994445801 -0.136850237846374512
-0.0459361076354980469 5.4063715934753418 5.49970006942749023 0.619283735752105713 -0.0644653290510177612 0.782516360282897949
-0.942056417465209961 5.49970006942749023 5.07069587707519531 0.586815416812896729 0.764174759387969971 -0.267739653587341309
-0.942160844802856445 5.49970006942749023 5.07082843780517578 0.385680198669433594 0.918645501136779785 0.0856805071234703064
-0.942528367042541504 5.49970006942749023 5.07059764862060547 0.385333359241485596 0.921331048011779785 -0.0516450405120849609
-4.13648843765258789 2.2164618968963623 0.000300000014249235392 -0.0566978007555007935 -0.0358007103204727173 -0.997749209403991699
-0.000300000014249235392 3.1933903694152832 5.18210363388061523 0.999603748321533203 0.0222727973014116287 -0.0172118619084358215
-1.07623946666717529 5.49970006942749023 4.33161020278930664 0.360744357109069824 0.528087198734283447 -0.768756985664367676
-1.07641935348510742 5.49970006942749023 4.33198451995849609 0.0819477066397666931 0.975729048252105713 -0.203069880604743958
-0.000300000014249235392 5.40821504592895508 5.41107463836669922 0.988553524017333984 0.150815993547439575 -0.00406318996101617813
-5.49970006942749023 4.85669231414794922 3.6387484073638916 -0.982075989246368408 0.145807504653930664 -0.1194438636302948
-4.17844009399414062 2.49129033088684082 2.02826786041259766 -0.282151579856872559 0.958841204643249512 -0.0318428985774517059
-4.17806911468505859 2.49140548706054688 2.02775168418884277 0.466629385948181152 0.604064464569091797 -0.646036386489868164
-4.17849540710449219 2.49127340316772461 2.02812838554382324 -0.34756094217300415 0.913275182247161865 -0.212437614798545837
-3.03693628311157227 3.56251001358032227 3.3002922534942627 0.0277258418500423431 -0.034560181200504303 -0.999017953872680664
-3.12623405456542969 3.22887778282165527 3.3002924919128418 -0.164511591196060181 0.340095877647399902 -0.925889134407043457
-3.126129150390625 3.22878050804138184 3.3002924919128418 0.168595895171165466 0.0426344163715839386 -0.984762787818908691
-0.000300000014249235392 4.14161872863769531 5.02850341796875 0.997144222259521484 0.0710752531886100769 -0.0255300477147102356
-5.49970006942749023 0.806468605995178223 1.27255451679229736 -0.981999576091766357 -0.0533267781138420105 -0.181199133396148682
-3.03747391700744629 5.49970006942749023 5.10125303268432617 -0.802271842956542969 0.567525327205657959 0.185134708881378174
-3.0370635986328125 5.49970006942749023 5.10118484497070312 -0.0449417047202587128 0.994248509407043457 0.0972113236784934998
-3.03720545768737793 5.49970006942749023 5.1013340950012207 -0.213430255651473999 0.938894033432006836 0.270047128200531006
-3.03683757781982422 5.49970006942749023 5.10081768035888672 -0.00184148107655346394 0.999394357204437256 -0.0347487442195415497
-3.43330001831054688 3.42847490310668945 3.3002922534942627 -0.306411623954772949 -0.236620098352432251 -0.922021031379699707
-0.000300000014249235392 3.80870819091796875 2.96214056015014648 0.983520567417144775 0.0513270683586597443 -0.173357143998146057
-5.49970006942749023 0.213508844375610352 4.94244098663330078 -0.990195631980895996 -0.135066002607345581 -0.0356334894895553589
-0.71902918815612793 5.49970006942749023 5.43776798248291016 -0.10269802063703537 0.895946979522705078 -0.432124972343444824
-0.718852519989013672 5.49970006942749023 5.43790626525878906 0.428584486246109009 0.903291583061218262 -0.0194800607860088348
-2.07823657989501953 4.84916782379150391 5.49970006942749023 -0.33971288800239563 0.111503958702087402 0.933896064758300781
-2.07806229591369629 4.84919166564941406 5.49970006942749023 0.208003789186477661 0.191222608089447021 0.959254026412963867
-0.631826162338256836 5.49970006942749023 5.0417022705078125 -0.926265358924865723 0.367638140916824341 -0.0829137787222862244
-0.631136417388916016 5.49970006942749023 5.04178714752197266 -0.21481989324092865 0.975036025047302246 0.0561871826648712158
-0.630888223648071289 5.49970006942749023 5.04172182083129883 0.11243797093629837 0.993209719657897949 -0.0298673585057258606
-3.81891441345214844 2.83438730239868164 3.3002924919128418 -0.0458671152591705322 0.0499315410852432251 -0.997698783874511719
-3.81908535957336426 2.8343665599822998 3.3002924919128418 -0.524866402149200439 -0.0165215153247117996 -0.851024270057678223
-0.000300000014249235392 1.8962559700012207 5.32356834411621094 0.99994194507598877 0.00475391699001193047 -0.00966083724051713943
-2.02427268028259277 5.49970006942749023 2.8944246768951416 0.015618576668202877 0.950500428676605225 -0.310330390930175781
-2.02422928810119629 5.49970006942749023 2.894561767578125 0.0741768330335617065 0.98602139949798584 -0.149196282029151917
-5.33954048156738281 0.118477582931518555 0.000300000014249235392 -0.101825311779975891 -0.0849989801645278931 -0.991164326667785645
-0.000300000014249235392 3.4229433536529541 3.98913455009460449 0.994063854217529297 0.0663924068212509155 -0.0861915722489356995
-3.03444480895996094 5.49970006942749023 5.21776247024536133 -0.545957863330841064 0.828811347484588623 0.122481293976306915
-3.03424286842346191 5.49970006942749023 5.21766281127929688 0.014349447563290596 0.983461320400238037 -0.180548667907714844
-0.000300000014249235392 5.46520900726318359 2.93318748474121094 0.974308252334594727 -0.0867747515439987183 0.207830712199211121
-0.258392333984375 5.49970006942749023 2.84991216659545898 0.357047557830810547 0.430283308029174805 -0.829079806804656982
-0.25849461555480957 5.49970006942749023 2.85043859481811523 0.434068918228149414 0.887879014015197754 -0.152496084570884705
-1.41236567497253418 5.49970006942749023 5.17278289794921875 0.0901263505220413208 0.995589375495910645 -0.0260551441460847855
-3.1628258228302002 -0.0995695590972900391 0.000300000014249235392 0.251374363899230957 -0.307616621255874634 -0.917705178260803223
-3.16291069984436035 -0.0995018482208251953 0.000300000014249235392 -0.00899002980440855026 -0.109098538756370544 -0.993990182876586914
-3.50505709648132324 2.7001798152923584 1.5488440990447998 -0.00923222023993730545 0.997552335262298584 -0.0693117529153823853
-3.50514888763427734 2.70015144348144531 1.54879999160766602 -0.30747753381729126 0.927064895629882812 -0.214495107531547546
-2.21570467948913574 5.49970006942749023 3.26676487922668457 0.215418413281440735 0.963700771331787109 -0.15772034227848053
-1.06424295902252197 5.49970006942749023 1.61159873008728027 -0.0129935741424560547 0.922301232814788818 -0.386253207921981812
-1.06396365165710449 5.49970006942749023 1.61164736747741699 0.173042073845863342 0.700289547443389893 -0.69256824254989624
-1.06396722793579102 5.49970006942749023 1.61179101467132568 0.205276086926460266 0.871842682361602783 -0.444693028926849365
-2.67124438285827637 5.49970006942749023 4.55524492263793945 -0.147095128893852234 0.720975279808044434 -0.677168846130371094
-2.67116570472717285 5.49970006942749023 4.55550384521484375 0.0577996000647544861 0.995434165000915527 -0.0759607478976249695
-3.09399318695068359 1.72124218940734863 0.000300000014249235392 -0.47394859790802002 -0.687464654445648193 -0.550240814685821533
-3.09374737739562988 1.72160792350769043 0.000300000014249235392 -0.0411865822970867157 -0.0295810867100954056 -0.998713433742523193
-1.51760590076446533 3.03036141395568848 0.000300000014249235392 0.0876437053084373474 0.0844999030232429504 -0.992561459541320801
-3.30875897407531738 3.95425844192504883 3.3002922534942627 -0.045202299952507019 0.146650955080986023 -0.988154888153076172
-3.1297760009765625 0.142889738082885742 0.000300000014249235392 -0.0482091531157493591 -0.732427656650543213 -0.67913585901260376
-3.12984919548034668 0.143172979354858398 0.000300000014249235392 -0.297877609729766846 -0.126794889569282532 -0.946145772933959961
-3.12961101531982422 0.143224954605102539 0.000300000014249235392 -0.00388940097764134407 -0.0688418522477149963 -0.997619986534118652
-1.7296220064163208 5.49970006942749023 5.05676364898681641 -0.515138924121856689 0.431793689727783203 0.740395843982696533
-1.72932243347167969 5.49970006942749023 5.05630016326904297 -0.188203215599060059 0.968293547630310059 0.164277747273445129
-1.91581249237060547 5.49970006942749023 4.5743408203125 -0.0185311511158943176 0.971152067184448242 -0.237739503383636475
-1.91502714157104492 5.49970006942749023 4.57494688034057617 0.37243276834487915 0.928046703338623047 -0.00480696652084589005
-1.91566681861877441 5.49970006942749023 4.57477235794067383 0.0288630444556474686 0.981518030166625977 -0.189180091023445129
-1.9157097339630127 5.49970006942749023 4.57516288757324219 -0.0995457544922828674 0.73372650146484375 0.67211306095123291
-1.91565537452697754 5.49970006942749023 4.57486915588378906 0.04504350945353508 0.997031748294830322 -0.0624392926692962646
-3.19413042068481445 5.49970006942749023 3.9923090934753418 -0.286292970180511475 0.948114633560180664 -0.138256698846817017
-3.19351744651794434 5.49970006942749023 3.99215459823608398 0.166442185640335083 0.914810299873352051 -0.367993324995040894
-3.19377923011779785 5.49970006942749023 3.99210119247436523 -0.250270634889602661 0.654229283332824707 -0.713686645030975342
-3.19366669654846191 5.49970006942749023 3.99239778518676758 -0.00716221239417791367 0.994834244251251221 -0.101258911192417145
-0.000300000014249235392 3.50195789337158203 1.80117249488830566 0.98578345775604248 0.00752097461372613907 -0.167851820588111877
-2.91460943222045898 3.82822561264038086 2.77055764198303223 -0.957812011241912842 -0.204050004482269287 -0.20238494873046875
-0.000300000014249235392 0.55355525016784668 4.77725601196289062 0.993326663970947266 -0.102382838726043701 -0.0531027503311634064
-3.30445098876953125 3.33062124252319336 3.3002922534942627 -0.058683391660451889 0.35272631049156189 -0.933884561061859131
-3.30449652671813965 3.33000397682189941 3.3002922534942627 -0.107936546206474304 0.00951137114316225052 -0.994112253189086914
-1.125343918800354 5.49970006942749023 1.50699067115783691 0.781142711639404297 0.00764071615412831306 -0.624305784702301025
-1.1558222770690918 5.49970006942749023 1.53134059906005859 0.479173958301544189 0.777904510498046875 -0.406517952680587769
-2.68553471565246582 3.08977293968200684 3.13330554962158203 -0.837801933288574219 0.463593095541000366 0.28839111328125
-2.68544197082519531 3.08947348594665527 3.13310718536376953 -0.931335210800170898 -0.290270835161209106 -0.219903498888015747
-4.14297199249267578 5.49970006942749023 3.51653409004211426 0.466413199901580811 0.274293392896652222 -0.840964913368225098
-4.14338302612304688 5.49970006942749023 3.51719474792480469 0.242501005530357361 0.734413862228393555 -0.633900225162506104
-0.000300000014249235392 3.63282871246337891 4.24612236022949219 0.992265045642852783 0.0927847027778625488 -0.0824679508805274963
-1.21213066577911377 5.49970006942749023 4.3596196174621582 0.248019486665725708 0.944700121879577637 -0.21454109251499176
-5.49970006942749023 1.92235124111175537 2.02750587463378906 -0.98751455545425415 -0.0193201042711734772 -0.15633806586265564
-3.81233119964599609 -0.447863340377807617 0.000300000014249235392 0.530249178409576416 -0.00149627169594168663 -0.847840547561645508
-3.81243515014648438 -0.447894573211669922 0.000300000014249235392 0.267043769359588623 -0.10163821280002594 -0.958309590816497803
-3.8128662109375 -0.447883844375610352 0.000300000014249235392 -0.00652721431106328964 -0.107716470956802368 -0.994160175323486328
-0.000300000014249235392 -0.394932746887207031 3.89099025726318359 0.98163759708404541 -0.168215125799179077 -0.0899517089128494263
-3.95522117614746094 5.49970006942749023 4.30517768859863281 0.114762850105762482 0.993178665637969971 -0.0206305105239152908
-0.000300000014249235392 4.89452266693115234 4.34448146820068359 0.989960193634033203 0.113526903092861176 -0.0842036455869674683
-0.159466028213500977 3.29287910461425781 0.000300000014249235392 0.102019518613815308 0.0505258999764919281 -0.993498444557189941
-3.36763811111450195 5.49970006942749023 4.22287845611572266 -0.814905047416687012 0.577428638935089111 0.0500593893229961395
-3.36729764938354492 5.49970006942749023 4.22280550003051758 -0.263132721185684204 0.953018486499786377 -0.150056332349777222
-3.36685943603515625 5.49970006942749023 4.22291421890258789 0.00934838317334651947 0.995255231857299805 -0.096848413348197937
-4.20191001892089844 0.156557798385620117 0.000300000014249235392 0.147691115736961365 -0.414598256349563599 -0.897939622402191162
-3.60416984558105469 1.46879720687866211 0.000300000014249235392 -0.221750125288963318 -0.541564762592315674 -0.810885012149810791
-0.000300000014249235392 2.5830531120300293 4.22204971313476562 0.993846893310546875 -0.0517185032367706299 -0.0979468673467636108
-5.49970006942749023 2.18636322021484375 3.63628888130187988 -0.99178391695022583 -0.0658233985304832458 -0.109689950942993164
-0.000300000014249235392 -0.441934585571289062 5.030426025390625 0.984985768795013428 -0.171497777104377747 -0.0197858121246099472
-3.55914616584777832 5.49970006942749023 3.87101984024047852 -0.0917916521430015564 0.99306488037109375 -0.0734596848487854004
-3.55911803245544434 5.49970006942749023 3.87091588973999023 0.204937458038330078 0.974000930786132812 0.0965543761849403381
-3.55924439430236816 5.49970006942749023 3.87077093124389648 -0.192895308136940002 0.915922999382019043 -0.351960748434066772
-5.2532048225402832 0.610925912857055664 0.000300000014249235392 -0.24993598461151123 -0.454048812389373779 -0.855202674865722656
-5.25313472747802734 0.611064434051513672 0.000300000014249235392 -0.0576821044087409973 -0.068608015775680542 -0.99597477912902832
-2.87719058990478516 5.49970006942749023 5.18641567230224609 -0.0735628977417945862 0.369191467761993408 0.926437318325042725
-2.87716436386108398 5.49970006942749023 5.1857304573059082 -0.108410105109214783 0.97005695104598999 0.217340067028999329
-2.8769230842590332 5.49970006942749023 5.18513822555541992 0.32318153977394104 0.739220559597015381 -0.590852499008178711
-2.87706923484802246 5.49970006942749023 5.18537139892578125 -0.049648333340883255 0.99849402904510498 -0.0233365315943956375
-4.29766654968261719 5.49970006942749023 1.121726393699646 0.158736541867256165 0.94192051887512207 -0.295953452587127686
-3.7554633617401123 1.40577542781829834 0.000300000014249235392 -0.3613319993019104 -0.160240784287452698 -0.918565154075622559
-3.7559506893157959 1.40470826625823975 0.000300000014249235392 -0.493165582418441772 -0.736444771289825439 -0.463073074817657471
-3.75570154190063477 1.40507376194000244 0.000300000014249235392 -0.214227542281150818 -0.340507566928863525 -0.915511369705200195
-4.26502513885498047 5.49970006942749023 5.35234165191650391 0.747344970703125 0.610186159610748291 0.262960642576217651
-4.26534080505371094 5.49970006942749023 5.3522486686706543 0.167876169085502625 0.978671491146087646 0.118404485285282135
-4.266021728515625 5.49970006942749023 5.35246181488037109 -0.322989195585250854 0.928837716579437256 0.181489452719688416
-4.26603889465332031 5.49970006942749023 5.35256481170654297 -0.33566698431968689 0.829173445701599121 0.446988821029663086
-4.26576089859008789 5.49970006942749023 5.3520665168762207 -0.124871402978897095 0.992151498794555664 -0.00652023497968912125
-2.9264216423034668 3.51060891151428223 3.3002922534942627 0.0980420857667922974 0.266514688730239868 -0.958831369876861572
-2.92633509635925293 3.51055264472961426 3.3002922534942627 0.36212506890296936 0.0838017240166664124 -0.928354740142822266
-2.92702794075012207 3.51049280166625977 3.3002922534942627 -0.0162452701479196548 0.0695750787854194641 -0.997444391250610352
-1.55135035514831543 3.15554380416870117 0.000300000014249235392 0.0716545954346656799 0.0383469834923744202 -0.996692061424255371
-0.173968791961669922 5.49970006942749023 3.86345672607421875 0.667209029197692871 0.743925273418426514 -0.0375119075179100037
-2.41541743278503418 5.49970006942749023 3.38420772552490234 -0.0389986671507358551 0.997849583625793457 0.052680380642414093
-0.000300000014249235392 5.07553720474243164 0.169596433639526367 0.978495597839355469 0.0672029703855514526 -0.195012763142585754
-5.49970006942749023 -0.96925663948059082 2.15285301208496094 -0.983889937400817871 -0.127945825457572937 -0.124861426651477814
-1.69897007942199707 5.49970006942749023 3.36506032943725586 -0.134566456079483032 0.962340056896209717 0.236206501722335815
-1.69894576072692871 5.49970006942749023 3.36492538452148438 -0.0576243586838245392 0.978084027767181396 -0.20007769763469696
-0.000300000014249235392 2.03625369071960449 2.94842720031738281 0.987541317939758301 -0.0338908247649669647 -0.153666839003562927
-3.17249011993408203 5.49970006942749023 4.59132480621337891 -0.340524613857269287 0.930216431617736816 -0.136894971132278442
-2.56018972396850586 5.49970006942749023 3.50166773796081543 0.0844887122511863708 0.995895981788635254 -0.032445661723613739
-2.56028103828430176 5.49970006942749023 3.50151658058166504 0.0181048847734928131 0.990069270133972168 -0.139409452676773071
-3.46682524681091309 2.15658712387084961 0.000300000014249235392 0.355809897184371948 0.109789498150348663 -0.928086996078491211
-3.16894769668579102 4.08031940460205078 3.30029201507568359 -0.305544376373291016 -0.206873953342437744 -0.929433107376098633
-3.16881823539733887 4.08039188385009766 3.30029201507568359 0.102551601827144623 0.0179497487843036652 -0.994565725326538086
-1.5582355260848999 5.49970006942749023 3.11001276969909668 0.0521688759326934814 0.946313619613647461 -0.319012373685836792
-1.55848050117492676 5.49970006942749023 3.11211276054382324 -0.0233882442116737366 0.993671178817749023 0.109865501523017883
-1.55841934680938721 5.49970006942749023 3.11179089546203613 0.0207791645079851151 0.857246756553649902 -0.514486312866210938
-1.55840170383453369 5.49970006942749023 3.11192989349365234 0.0818753987550735474 0.987443804740905762 -0.135096698999404907
-2.9847099781036377 5.49970006942749023 1.27814459800720215 0.314059585332870483 0.929803907871246338 0.191914781928062439
-2.98480486869812012 5.49970006942749023 1.27802670001983643 0.0209929868578910828 0.982788205146789551 -0.183538764715194702
-3.48612570762634277 3.23755645751953125 5.49970006942749023 0.452380448579788208 0.200036793947219849 0.869101345539093018
-3.48626947402954102 3.23748159408569336 5.49970006942749023 0.0416656769812107086 -0.0200248304754495621 0.998930931091308594
-3.21897697448730469 5.49970006942749023 5.19064903259277344 -0.141547158360481262 0.686286687850952148 -0.713424742221832275
-3.21892237663269043 5.49970006942749023 5.19095230102539062 -0.0243383683264255524 0.999300956726074219 -0.0283741727471351624
-4.90557861328125 1.88769721984863281 0.000300000014249235392 0.648954212665557861 0.644678175449371338 -0.404040366411209106
-4.90602684020996094 1.88737297058105469 0.000300000014249235392 0.0976215973496437073 0.455350160598754883 -0.88494420051574707
-4.90595245361328125 1.8870689868927002 0.000300000014249235392 0.212778925895690918 0.152004003524780273 -0.965204536914825439
-4.9063267707824707 1.88674545288085938 0.000300000014249235392 0.128450870513916016 -0.19110386073589325 -0.973128855228424072
-4.90639114379882812 1.88679563999176025 0.000300000014249235392 -0.0812702476978302002 -0.0289213154464960098 -0.996272385120391846
-5.49970006942749023 3.22060894966125488 4.17269134521484375 -0.994383573532104492 0.0753082334995269775 -0.0743639618158340454
-0.000300000014249235392 5.29027223587036133 5.21312522888183594 0.992135167121887207 0.124360218644142151 -0.0142257008701562881
-2.4335329532623291 5.49970006942749023 1.48885953426361084 -0.0261796675622463226 0.999467968940734863 -0.0194498840719461441
-3.90872478485107422 1.15044510364532471 0.000300000014249235392 0.596151113510131836 -0.674530923366546631 -0.435444355010986328
-3.90904521942138672 1.15085029602050781 0.000300000014249235392 0.28263816237449646 -0.186205968260765076 -0.94097977876663208
-3.0349888801574707 5.49970006942749023 2.32348394393920898 -0.047312859445810318 0.983170986175537109 -0.176454558968544006
-3.00160026550292969 3.35707545280456543 3.3002924919128418 -0.74891960620880127 0.367453724145889282 -0.551450014114379883
-3.00118899345397949 3.3569180965423584 3.3002924919128418 0.0119367130100727081 0.140903159976005554 -0.989951372146606445
-0.000300000014249235392 5.15935230255126953 5.10541582107543945 0.990980863571166992 0.132829099893569946 -0.0177001487463712692
-5.49970006942749023 5.45259475708007812 1.19841432571411133 -0.904912233352661133 -0.00547175109386444092 -0.425563007593154907
-5.49970006942749023 5.31251955032348633 2.48656368255615234 -0.608532905578613281 -0.0623421669006347656 -0.791075944900512695
-3.67311573028564453 5.49970006942749023 4.86168670654296875 -0.581285774707794189 0.797878146171569824 -0.159678876399993896
-3.6724402904510498 5.49970006942749023 4.86180400848388672 0.0228358004242181778 0.999219834804534912 -0.0322202406823635101
-3.67249441146850586 5.49970006942749023 4.86176300048828125 -0.153315186500549316 0.974258184432983398 -0.165273398160934448
-5.49970006942749023 1.99266457557678223 4.21174812316894531 -0.993344128131866455 -0.0503923632204532623 -0.103575706481933594
-0.000300000014249235392 3.50559234619140625 3.55951714515686035 0.990941286087036133 0.0847632661461830139 -0.104165241122245789
-5.49970006942749023 1.1428760290145874 2.25731635093688965 -0.982519626617431641 -0.0483166463673114777 -0.179779067635536194
-2.29492425918579102 2.5643913745880127 1.65029633045196533 0.670509815216064453 -0.633465051651000977 -0.386184751987457275
-2.29540801048278809 2.56472516059875488 1.65029633045196533 0.108688846230506897 -0.463821172714233398 -0.879236340522766113
-2.29576873779296875 2.5650172233581543 1.65029633045196533 -0.264530718326568604 -0.432366490364074707 -0.862022340297698975
-2.29571151733398438 2.56522655487060547 1.65029633045196533 -0.113113142549991608 0.192046761512756348 -0.974845290184020996
-2.29559612274169922 2.56506919860839844 1.65029633045196533 0.0384078174829483032 -0.0138284303247928619 -0.999166429042816162
-0.000300000014249235392 2.90450119972229004 4.56127166748046875 0.99640500545501709 -0.0208237078040838242 -0.0821179524064064026
-0.000300000014249235392 4.21008491516113281 3.72849273681640625 0.984892845153808594 0.120024979114532471 -0.124819763004779816
-1.38512015342712402 1.74739980697631836 2.86825847625732422 -0.659672141075134277 -0.124056242406368256 -0.741243958473205566
-3.79802846908569336 -0.73688817024230957 0.000300000014249235392 -0.14025445282459259 -0.36824566125869751 -0.919088602066040039
-3.55302858352661133 0.664943218231201172 0.000300000014249235392 0.257723957300186157 -0.39557260274887085 -0.88153308629989624
-4.67329597473144531 1.53319954872131348 0.000300000014249235392 -0.328357726335525513 0.377816647291183472 -0.865699529647827148
-4.67318058013916016 1.53309381008148193 0.000300000014249235392 0.00613477034494280815 0.083467528223991394 -0.996491551399230957
-1.11923551559448242 5.49970006942749023 4.83031463623046875 0.164667293429374695 0.967564284801483154 0.191582903265953064
-0.882681488990783691 2.44052386283874512 0.000300000014249235392 0.197762921452522278 0.191554144024848938 -0.961351513862609863
-0.882794976234436035 2.44036197662353516 0.000300000014249235392 0.0570781901478767395 -0.0154762165620923042 -0.998249709606170654
-5.49970006942749023 3.78445291519165039 5.41097927093505859 -0.998460888862609863 0.0553263053297996521 -0.00386155350133776665
-5.49970006942749023 3.54211664199829102 3.73874878883361816 -0.992336750030517578 0.045254044234752655 -0.114977262914180756
-5.49970006942749023 1.68873178958892822 3.81033754348754883 -0.994482874870300293 -0.0326071977615356445 -0.0997020304203033447
-5.49970006942749023 1.29239034652709961 2.60158753395080566 -0.987949728965759277 -0.0517432317137718201 -0.145869776606559753
-0.000300000014249235392 3.56957197189331055 4.71110677719116211 0.996685445308685303 0.067110016942024231 -0.0459816195070743561
-2.26854109764099121 -0.453926324844360352 0.000300000014249235392 0.218050330877304077 -0.940085649490356445 -0.262093394994735718
-2.26870012283325195 -0.452950239181518555 0.000300000014249235392 0.275683850049972534 -0.303592830896377563 -0.912047028541564941
-0.000300000014249235392 1.80531728267669678 3.62147331237792969 0.987333476543426514 -0.0976685583591461182 -0.125033557415008545
-4.88170671463012695 5.49970006942749023 4.83082771301269531 0.0594608187675476074 0.958087444305419922 0.28023684024810791
-0.000300000014249235392 2.48266720771789551 3.06120014190673828 0.984436869621276855 -0.0114209642633795738 -0.175366863608360291
-2.55624485015869141 5.49970006942749023 4.72994709014892578 -0.207385718822479248 0.964668691158294678 -0.162497013807296753
-2.55616235733032227 5.49970006942749023 4.72998046875 0.0600181780755519867 0.996562719345092773 -0.0570997335016727448
-3.36918878555297852 5.49970006942749023 3.56108450889587402 -0.0441267043352127075 0.973770678043365479 -0.223211631178855896
-2.45053434371948242 2.56372880935668945 1.308707594871521 0.235217869281768799 0.546578526496887207 -0.80369412899017334
-2.45127630233764648 2.56124305725097656 1.31193184852600098 0.696245849132537842 -0.282282233238220215 -0.659968435764312744
-4.73073959350585938 5.49970006942749023 4.74262619018554688 -0.0614119693636894226 0.584151744842529297 -0.80931776762008667
-4.73071956634521484 5.49970006942749023 4.74296665191650391 -0.0374890528619289398 0.969008266925811768 -0.244166836142539978
-4.73159599304199219 5.49970006942749023 4.74355745315551758 -0.908032417297363281 0.417647242546081543 -0.0323711410164833069
-4.73099040985107422 5.49970006942749023 4.74356746673583984 -0.153986841440200806 0.987109899520874023 -0.0436132699251174927
-3.23607134819030762 5.49970006942749023 3.68231630325317383 0.05917372927069664 0.898907899856567383 -0.434123337268829346
-3.23618221282958984 5.49970006942749023 3.68369674682617188 -0.017909592017531395 0.992218136787414551 -0.123217076063156128
-3.86855697631835938 5.49970006942749023 3.11112308502197266 -0.0286858901381492615 0.989195287227630615 -0.143769457936286926
-5.49970006942749023 -0.0598096847534179688 1.59647488594055176 -0.984156250953674316 -0.0839899554848670959 -0.156147584319114685
-5.05010509490966797 4.78203582763671875 0.000300000014249235392 -0.817613840103149414 -0.217153623700141907 -0.533246636390686035
-2.34813857078552246 5.49970006942749023 1.76213669776916504 -0.375257223844528198 0.802500784397125244 -0.463868975639343262
-1.86913907527923584 3.20402741432189941 0.000300000014249235392 0.0534856133162975311 0.247073709964752197 -0.967519402503967285
-1.86924052238464355 3.20333337783813477 0.000300000014249235392 0.0248369332402944565 0.015879463404417038 -0.999565362930297852
-0.000300000014249235392 0.32964015007019043 1.66009187698364258 0.98270416259765625 -0.109186276793479919 -0.149568662047386169
-0.000300000014249235392 5.29888343811035156 5.38339710235595703 0.993101716041564941 0.117139995098114014 -0.00520645827054977417
-3.99687528610229492 5.49970006942749023 5.09864330291748047 -0.703612565994262695 0.673951327800750732 0.225208476185798645
-3.99666738510131836 5.49970006942749023 5.09846401214599609 -0.321115404367446899 0.915520250797271729 -0.2422962486743927
-3.99608802795410156 5.49970006942749023 5.09892940521240234 -0.0563831217586994171 0.998178958892822266 -0.0214408952742815018
-0.000300000014249235392 1.73158121109008789 3.0843503475189209 0.986834228038787842 -0.0780526995658874512 -0.141654461622238159
-3.15322995185852051 5.49970006942749023 2.90285706520080566 -0.071911253035068512 0.985442638397216797 -0.154050290584564209
-2.38019776344299316 5.49970006942749023 5.09842920303344727 0.0731260478496551514 0.996878504753112793 -0.0297615993767976761
-0.122451305389404297 5.49970006942749023 1.71986484527587891 -0.24010312557220459 0.970371663570404053 0.0270024891942739487
-0.122339248657226562 5.49970006942749023 1.71981298923492432 0.124438375234603882 0.981926441192626953 -0.142602607607841492
-2.1410822868347168 5.49970006942749023 4.03345584869384766 -0.146264821290969849 0.977092623710632324 0.154585272073745728
-0.908540606498718262 5.31627845764160156 0.000300000014249235392 0.0640864670276641846 0.100291743874549866 -0.992891967296600342
-3.23037910461425781 5.49970006942749023 4.57697963714599609 0.787932932376861572 0.573347032070159912 0.224577248096466064
-3.2307591438293457 5.49970006942749023 4.57684230804443359 0.106835909187793732 0.992069602012634277 -0.0662110075354576111
-5.49970006942749023 2.76240181922912598 4.19502162933349609 -0.995441436767578125 -0.0161642879247665405 -0.0939943790435791016
-0.000300000014249235392 0.80997467041015625 4.17962884902954102 0.993353009223937988 -0.0839650481939315796 -0.078737504780292511
-0.000300000014249235392 1.97631549835205078 2.88071131706237793 0.984135687351226807 -0.0357652381062507629 -0.173774868249893188
-0.000300000014249235392 1.28707766532897949 3.64175915718078613 0.992305636405944824 -0.0387460067868232727 -0.117592893540859222
-2.33814501762390137 5.49970006942749023 2.17202281951904297 0.0572642236948013306 0.98650670051574707 -0.15337921679019928
-0.000300000014249235392 4.70282602310180664 4.28727579116821289 0.991241276264190674 0.111541986465454102 -0.0707037970423698425
-1.10085666179656982 5.49970006942749023 5.45339107513427734 0.0107472799718379974 0.998073577880859375 -0.061103329062461853
-4.77667331695556641 5.49970006942749023 3.57999515533447266 0.426924377679824829 0.837515711784362793 -0.341032236814498901
-4.77654218673706055 5.49970006942749023 3.5798943042755127 0.704711854457855225 0.537329018115997314 -0.463312745094299316
-4.776824951171875 5.49970006942749023 3.58003520965576172 0.324931442737579346 0.880184650421142578 -0.345968812704086304
-3.18589472770690918 4.1782073974609375 3.30029201507568359 0.180517509579658508 0.349614381790161133 -0.919338405132293701
-3.18600749969482422 4.17809486389160156 3.30029201507568359 -0.17737223207950592 0.00474107405170798302 -0.98413240909576416
-0.889630317687988281 5.49970006942749023 3.2203373908996582 0.0694166049361228943 0.987551569938659668 -0.141149088740348816
-5.49970006942749023 3.77660894393920898 2.97189211845397949 -0.982973635196685791 0.119325809180736542 -0.13972879946231842
-5.49970006942749023 1.91227662563323975 3.04962539672851562 -0.990512967109680176 -0.0224292520433664322 -0.135576114058494568
-1.96508288383483887 5.49970006942749023 5.01793241500854492 0.346788495779037476 0.920294702053070068 -0.181094244122505188
-1.96517705917358398 5.49970006942749023 5.01798200607299805 0.0627480223774909973 0.99753493070602417 -0.0314107164740562439
-2.8216550350189209 5.49970006942749023 4.49904680252075195 -0.181223735213279724 0.974753499031066895 0.130435928702354431
-0.808737516403198242 4.63452529907226562 0.000300000014249235392 -0.283408522605895996 -0.532287657260894775 -0.797715067863464355
-0.808673977851867676 4.63475799560546875 0.000300000014249235392 -0.141148433089256287 0.105517543852329254 -0.98434901237487793
-1.5962454080581665 5.49970006942749023 4.61644315719604492 -0.228304028511047363 0.8338775634765625 -0.502518951892852783
-1.59610950946807861 5.49970006942749023 4.61684036254882812 -0.144677087664604187 0.970908164978027344 -0.190803065896034241
-1.35354042053222656 5.49970006942749023 4.0467987060546875 0.216583490371704102 0.975946724414825439 0.0248886197805404663
-1.35357761383056641 5.49970006942749023 4.04676342010498047 0.0967420861124992371 0.991103768348693848 -0.0914008989930152893
-0.000300000014249235392 2.56097841262817383 4.11429691314697266 0.990725994110107422 0.0176966208964586258 -0.134717687964439392
-2.94396209716796875 3.7769927978515625 3.3002922534942627 -0.460584878921508789 -0.242568418383598328 -0.853827953338623047
-5.49970006942749023 2.06776547431945801 4.92449569702148438 -0.998909354209899902 -0.0222774315625429153 -0.041033037006855011
-2.36389279365539551 1.72941136360168457 1.65029633045196533 0.377176612615585327 0.615475058555603027 -0.69204634428024292
-2.36400938034057617 1.72912478446960449 1.65029633045196533 0.153893947601318359 -0.0649115070700645447 -0.985952854156494141
-2.94539737701416016 5.49970006942749023 4.9529414176940918 0.469374120235443115 0.881217062473297119 -0.0560757890343666077
-2.94559645652770996 5.49970006942749023 4.95295858383178711 -0.130264148116111755 0.991458475589752197 -0.00642501655966043472
-2.10502433776855469 5.49970006942749023 1.68051373958587646 0.196083039045333862 0.867000043392181396 0.458107411861419678
-2.10513758659362793 5.49970006942749023 1.68029475212097168 -0.147334679961204529 0.96955496072769165 -0.19559052586555481
-0.000300000014249235392 0.793348908424377441 3.59180688858032227 0.991075456142425537 -0.0583000071346759796 -0.119876883924007416
-3.66904664039611816 2.86024999618530273 3.3002924919128418 -0.124828137457370758 0.0613424181938171387 -0.990280270576477051
-0.000300000014249235392 4.57892131805419922 5.45578289031982422 0.985023319721221924 0.17241986095905304 -0.000641920429188758135
-1.49336278438568115 5.49970006942749023 5.11159086227416992 0.109225548803806305 0.929276645183563232 -0.35286635160446167
