ply
format ascii 1.0
element vertex 376
property float x
property float y
property float z
property float nx
property float ny
property float nz
end_header
-3.91045284271240234 3.05719733238220215 4.26070022583007812 -0.71071392297744751 0.416809439659118652 -0.566705942153930664
-5.49700021743774414 1.87548935413360596 4.687530517578125 -0.784516572952270508 -0.583228707313537598 0.210660755634307861
-1.41841161251068115 5.49700021743774414 2.95714306831359863 0.26746562123298645 0.814467012882232666 -0.514884114265441895
-3.00842452049255371 4.13976287841796875 1.91502189636230469 -0.681203484535217285 -0.580810546875 -0.445669054985046387
-0.00299976160749793053 1.3473351001739502 5.02417850494384766 0.947167634963989258 -0.274266839027404785 -0.166286364197731018
-0.00300000002607703209 3.99410843849182129 5.06253528594970703 0.918816268444061279 0.370867013931274414 -0.135034456849098206
-3.84561562538146973 3.47986221313476562 4.47671985626220703 -0.156416386365890503 0.715497612953186035 -0.680879592895507812
-3.9029386043548584 4.43636894226074219 5.49700021743774414 -0.0408897697925567627 0.682298362255096436 0.729929447174072266
-5.49700021743774414 4.17699289321899414 4.18686389923095703 -0.704039514064788818 0.549843490123748779 -0.44944465160369873
-2.9660651683807373 5.49700021743774414 0.868458747863769531 -0.0205458886921405792 0.487033456563949585 -0.873141586780548096
-3.69708871841430664 4.37162971496582031 0.999284088611602783 -0.540747225284576416 -0.835586369037628174 0.096890963613986969
-4.62613201141357422 0.0583747178316116333 0.987523257732391357 -0.219721004366874695 -0.489302307367324829 -0.843982160091400146
-3.41835308074951172 0.239229485392570496 0.876135468482971191 0.984862148761749268 0.14776986837387085 -0.0906123220920562744
-3.75645899772644043 0.646114826202392578 0.9362068772315979 -0.631163239479064941 0.767445206642150879 0.112520292401313782
-5.49700021743774414 2.07197856903076172 2.84182834625244141 -0.685115933418273926 -0.206678271293640137 -0.698498547077178955
-0.00300023844465613365 0.801815390586853027 5.01704788208007812 0.908393681049346924 -0.401861429214477539 -0.115448161959648132
-0.00300000002607703209 3.13459110260009766 4.34218311309814453 0.876228034496307373 0.323628097772598267 -0.35705643892288208
-2.01610565185546875 -0.373206377029418945 0.00299952318891882896 0.244981914758682251 -0.420952200889587402 -0.873374581336975098
-3.50774049758911133 5.49700021743774414 5.19222164154052734 -0.310871422290802002 0.944143950939178467 -0.109321393072605133
-2.54360556602478027 5.49700021743774414 4.32918214797973633 0.0745358839631080627 0.95711439847946167 -0.279957830905914307
-2.65539240837097168 5.49700021743774414 0.502414703369140625 -0.0282842852175235748 0.419439464807510376 -0.90734255313873291
-3.62225222587585449 1.47664391994476318 0.00300000002607703209 -0.0664925947785377502 -0.25669369101524353 -0.964202821254730225
-0.305779218673706055 5.49700021743774414 1.012359619140625 0.309995114803314209 0.557084262371063232 -0.77042853832244873
-2.98759794235229492 4.07262516021728516 2.83669376373291016 -0.757313370704650879 -0.402047932147979736 0.514620184898376465
-1.9639352560043335 5.49700021743774414 1.3695533275604248 0.447283685207366943 0.623683333396911621 -0.641058802604675293
-1.54531979560852051 5.49700021743774414 4.99591732025146484 0.331490308046340942 0.933712780475616455 -0.135257735848426819
-1.65886378288269043 5.43686056137084961 5.49700021743774414 -0.218269705772399902 -0.115608453750610352 0.969016492366790771
-1.63372707366943359 5.49700021743774414 5.38159561157226562 0.187688052654266357 0.471443086862564087 -0.861692845821380615
-3.94200491905212402 3.52924513816833496 4.47521781921386719 -0.41056978702545166 0.678409397602081299 -0.609256207942962646
-5.10560417175292969 5.04674100875854492 5.49700021743774414 -0.536332786083221436 0.699452757835388184 0.472348272800445557
-5.24027919769287109 5.49700021743774414 3.87920522689819336 -0.578177809715270996 0.733893156051635742 -0.356526672840118408
-5.49700021743774414 3.55670547485351562 5.06814765930175781 -0.964666664600372314 0.234480500221252441 -0.12015436589717865
-1.53977179527282715 5.49700021743774414 0.570445537567138672 0.265004903078079224 0.482583105564117432 -0.8347969651222229
-3.88286733627319336 3.35894608497619629 4.45818948745727539 -0.364478766918182373 0.757008790969848633 -0.542303383350372314
-4.32590770721435547 3.78780174255371094 5.49700021743774414 -0.365965366363525391 0.354248166084289551 0.860568106174468994
-3.88552474975585938 5.49700021743774414 5.31955623626708984 0.247850522398948669 0.963637232780456543 -0.0998668372631072998
-3.04011797904968262 2.84158158302307129 1.89003956317901611 -0.0175261553376913071 0.244407609105110168 -0.969514191150665283
-0.00299976160749793053 5.10373926162719727 3.80953884124755859 0.793689429759979248 0.480927228927612305 -0.372513264417648315
-1.58597218990325928 2.21647214889526367 1.65299630165100098 0.241746887564659119 -0.294010013341903687 -0.924725115299224854
-0.00300000002607703209 1.14347732067108154 3.32885646820068359 0.623262763023376465 -0.42167055606842041 0.658587455749511719
-2.84455347061157227 5.49700021743774414 5.02962923049926758 0.233545631170272827 0.957327425479888916 -0.170237123966217041
-0.202858924865722656 4.59949970245361328 0.00300047686323523521 0.434108495712280273 0.416736394166946411 -0.798674285411834717
-5.49700021743774414 0.878695011138916016 1.72514533996582031 -0.442455798387527466 -0.492352843284606934 -0.74954754114151001
-5.49700021743774414 0.744517087936401367 4.85693788528442383 -0.923268675804138184 -0.307488203048706055 -0.230273544788360596
-2.5625307559967041 5.49700021743774414 4.36910295486450195 0.190907925367355347 0.93567192554473877 -0.296769678592681885
-0.00300047686323523521 1.83769881725311279 4.78506755828857422 0.966361701488494873 -0.152389451861381531 -0.207177549600601196
-0.00300000002607703209 0.232724666595458984 1.37351751327514648 0.497465610504150391 -0.376501590013504028 -0.781520664691925049
-4.88421058654785156 0.969172000885009766 0.00300000002607703209 -0.409592330455780029 -0.105254508554935455 -0.906176388263702393
-5.49700021743774414 -0.772648811340332031 4.53306913375854492 -0.633566677570343018 -0.732512593269348145 -0.249035239219665527
-5.49700021743774414 3.76868796348571777 4.82953262329101562 -0.962100744247436523 0.166610389947891235 -0.215877518057823181
-5.49700021743774414 1.25825810432434082 5.35581111907958984 -0.878967702388763428 -0.475472360849380493 -0.0366308540105819702
-0.00300000002607703209 3.81900262832641602 4.46265029907226562 0.732112407684326172 0.620263159275054932 -0.281575918197631836
-3.20953464508056641 5.49700021743774414 3.36745238304138184 -0.135448291897773743 0.797604084014892578 -0.587776720523834229
-5.49700021743774414 1.29028797149658203 2.62966394424438477 -0.754833757877349854 -0.100633218884468079 -0.648150444030761719
-3.97197866439819336 0.949397087097167969 0.00299952318891882896 -0.237386524677276611 -0.159961923956871033 -0.958154380321502686
-3.52900457382202148 3.78097105026245117 3.30299258232116699 -0.407540738582611084 0.445227950811386108 -0.797297060489654541
-3.58873319625854492 3.71954727172851562 3.42620038986206055 -0.400169163942337036 -0.408316999673843384 0.820452213287353516
-3.48603272438049316 3.77032709121704102 3.30299234390258789 0.602510690689086914 0.297910362482070923 -0.740425348281860352
-0.00300000002607703209 1.89343464374542236 4.38945960998535156 0.852519869804382324 -0.422984331846237183 -0.307073414325714111
-2.85413098335266113 2.5946345329284668 0.00299952318891882896 -0.067632921040058136 0.0614463910460472107 -0.995816290378570557
-0.00300000002607703209 4.62374544143676758 1.57754921913146973 0.587493836879730225 0.461224079132080078 -0.664923548698425293
-2.75553512573242188 2.90395498275756836 0.00300000002607703209 -0.143641337752342224 0.118622139096260071 -0.982494771480560303
-5.49700021743774414 -0.0933091640472412109 3.51219034194946289 -0.64456641674041748 -0.655386567115783691 -0.393703669309616089
-5.49700021743774414 0.720679521560668945 5.08325767517089844 -0.892509639263153076 -0.439473152160644531 -0.101439289748668671
-5.49700021743774414 0.995307683944702148 2.372528076171875 -0.578308403491973877 -0.457493007183074951 -0.675469875335693359
-3.01067805290222168 3.28621172904968262 3.30299210548400879 0.0183340664952993393 0.076150849461555481 -0.996927738189697266
-5.49700021743774414 0.606395721435546875 1.33780908584594727 -0.559227168560028076 -0.250917613506317139 -0.790129959583282471
-5.49700021743774414 2.0512542724609375 0.950310230255126953 -0.382628560066223145 -0.150343313813209534 -0.911587774753570557
-0.00300047686323523521 1.35617125034332275 4.69939136505126953 0.811563789844512939 -0.491805881261825562 -0.315422296524047852
-0.00300023844465613365 0.337366104125976562 3.12638092041015625 0.613152205944061279 -0.571363091468811035 -0.545516788959503174
-5.49700021743774414 1.0554889440536499 3.86751198768615723 -0.859216749668121338 -0.174799919128417969 -0.480823785066604614
-5.49700021743774414 2.23880577087402344 2.91842079162597656 -0.75591742992401123 -0.180389061570167542 -0.629323959350585938
-3.65018725395202637 2.97334933280944824 3.89380502700805664 -0.586688220500946045 0.177420869469642639 -0.790138423442840576
-4.89999485015869141 -0.0050029754638671875 0.00299952318891882896 -0.247042298316955566 -0.58871382474899292 -0.769666194915771484
-0.00300023844465613365 1.49889063835144043 1.42604255676269531 0.552547156810760498 -0.107841446995735168 -0.826475560665130615
-0.00299976160749793053 3.98800539970397949 5.07048416137695312 0.89627915620803833 0.420719444751739502 -0.140281334519386292
-5.49700021743774414 4.36318016052246094 5.17113590240478516 -0.904626667499542236 0.416751205921173096 -0.0892691835761070251
-0.00300000002607703209 1.31522691249847412 4.95765495300292969 0.964711248874664307 -0.175133064389228821 -0.196622937917709351
-5.49700021743774414 2.57127285003662109 4.05195474624633789 -0.847596943378448486 -0.231738477945327759 -0.477364331483840942
-3.43827152252197266 0.988294601440429688 0.00300000002607703209 -0.0397664010524749756 -0.281162887811660767 -0.958835780620574951
-0.00300000002607703209 -0.951700210571289062 2.79231715202331543 0.481074362993240356 -0.689232110977172852 -0.54178088903427124
-2.34070229530334473 5.49700021743774414 5.03509283065795898 0.0180443450808525085 0.992552518844604492 -0.120473623275756836
-0.72104191780090332 5.49700021743774414 2.41657924652099609 0.355989933013916016 0.692166328430175781 -0.62783515453338623
-3.41884398460388184 5.49700021743774414 1.90042996406555176 -0.215010359883308411 0.53215181827545166 -0.818892538547515869
-5.49700021743774414 1.83808767795562744 2.82016396522521973 -0.59052807092666626 -0.290854483842849731 -0.752781689167022705
-3.75762081146240234 3.1207740306854248 4.31026124954223633 -0.817564547061920166 0.0106458589434623718 -0.57573854923248291
-5.49700021743774414 0.687852621078491211 5.21953487396240234 -0.557101011276245117 -0.777892053127288818 0.29072725772857666
-4.48194360733032227 5.49700021743774414 3.1259911060333252 -0.473956793546676636 0.669005513191223145 -0.572535276412963867
-0.00300000002607703209 1.68816161155700684 2.95401692390441895 0.71013033390045166 -0.29766082763671875 -0.638054013252258301
-0.00300047686323523521 4.40412282943725586 5.16654109954833984 0.873746395111083984 0.478907525539398193 -0.0849398970603942871
-3.51645231246948242 -0.249862879514694214 0.748325169086456299 -0.187082752585411072 -0.533027172088623047 -0.825155794620513916
-3.51536750793457031 -0.249985069036483765 0.748579978942871094 0.883860886096954346 -0.463393330574035645 0.0636908262968063354
-5.49700021743774414 0.949552416801452637 1.96531796455383301 -0.75784069299697876 0.458048731088638306 0.464616835117340088
-0.00300000002607703209 0.354956865310668945 2.99055242538452148 0.605733275413513184 -0.601972758769989014 -0.520303785800933838
-0.00300000002607703209 1.28415274620056152 4.70644283294677734 0.845109224319458008 -0.494783639907836914 -0.202434077858924866
-0.00299976160749793053 2.99796867370605469 5.25526571273803711 0.953612685203552246 0.295278638601303101 -0.0585953332483768463
-3.55120277404785156 5.49700021743774414 5.23878717422485352 -0.428747594356536865 0.90105736255645752 -0.0653537735342979431
-2.92059612274169922 4.84718799591064453 0.00300000002607703209 -0.10065905749797821 0.498688966035842896 -0.860916376113891602
-1.21577465534210205 4.47109079360961914 0.00300000002607703209 0.161528065800666809 0.250416457653045654 -0.954568088054656982
-0.00300023844465613365 3.88387107849121094 4.82416152954101562 0.798896312713623047 0.542415440082550049 -0.259904086589813232
-0.00300023844465613365 0.835723519325256348 3.6543123722076416 0.743952631950378418 -0.479006737470626831 -0.465925931930541992
-0.00300000002607703209 4.23929691314697266 4.58404970169067383 0.770393133163452148 0.539788603782653809 -0.339297294616699219
-4.16010475158691406 1.67591369152069092 0.00300000002607703209 -0.143329963088035583 -0.220424428582191467 -0.964815855026245117
-5.49700021743774414 1.94129443168640137 1.25909698009490967 -0.722053170204162598 0.143010452389717102 0.676895260810852051
-3.80942845344543457 2.96722650527954102 4.09540700912475586 -0.301328390836715698 0.555398523807525635 -0.775070130825042725
-4.93614530563354492 5.49700021743774414 4.45696353912353516 -0.56222987174987793 0.751786231994628906 -0.344550430774688721
-4.41886329650878906 5.29731559753417969 5.49700021743774414 0.437906473875045776 -0.16904352605342865 0.882984817028045654
-0.419870376586914062 4.75170040130615234 0.00299952318891882896 0.349658936262130737 0.463484644889831543 -0.814199388027191162
-5.49700021743774414 1.61071145534515381 3.23480033874511719 -0.70217210054397583 -0.104638278484344482 -0.704276323318481445
-3.77250003814697266 1.01583600044250488 0.00300047686323523521 -0.112080663442611694 -0.142570152878761292 -0.98341834545135498
-0.00300023844465613365 2.87892580032348633 5.26955842971801758 0.995607197284698486 0.0510642118752002716 -0.0784780606627464294
-1.3347325325012207 5.49700021743774414 3.42380475997924805 0.321137160062789917 0.68352198600769043 -0.655491113662719727
-0.00299976160749793053 4.35642433166503906 4.04866790771484375 0.881821691989898682 0.314682096242904663 -0.351234495639801025
-0.00300000002607703209 4.32088565826416016 4.71796131134033203 0.659343242645263672 0.714311540126800537 -0.234575092792510986
-5.49700021743774414 0.0342559814453125 5.25945615768432617 -0.763589918613433838 -0.643935799598693848 -0.0477192103862762451
-3.40165615081787109 3.2285759449005127 4.06866645812988281 -0.339281857013702393 0.412303268909454346 -0.84551393985748291
-0.00300000002607703209 2.15295886993408203 2.57636642456054688 0.879619181156158447 -0.278139054775238037 -0.385887235403060913
-3.6288454532623291 3.03806710243225098 4.12541770935058594 -0.513607323169708252 0.387736111879348755 -0.765420317649841309
-0.00300023844465613365 3.44608879089355469 4.91274738311767578 0.874040186405181885 0.457277148962020874 -0.164168700575828552
-0.00300023844465613365 5.07121181488037109 5.4107813835144043 0.741743564605712891 0.670499503612518311 -0.0157146360725164413
-1.54569423198699951 5.49700021743774414 2.40333080291748047 0.229253858327865601 0.694701015949249268 -0.681786715984344482
-5.49700021743774414 2.95398330688476562 5.26927471160888672 -0.888714849948883057 0.449225157499313354 -0.0915568843483924866
-0.268568992614746094 -0.74468231201171875 0.00300047686323523521 0.297993332147598267 -0.398826867341995239 -0.867258369922637939
-0.00300000002607703209 2.54599547386169434 4.91816425323486328 0.959631264209747314 -0.0768341347575187683 -0.270563006401062012
-5.49700021743774414 2.10905861854553223 3.64999055862426758 -0.691273629665374756 -0.29040190577507019 -0.661670207977294922
-5.49700021743774414 3.01445865631103516 5.37697219848632812 -0.94777226448059082 0.317661941051483154 -0.0286125782877206802
-5.49700021743774414 -0.493815422058105469 3.03627777099609375 -0.710564136505126953 -0.506490409374237061 -0.48843228816986084
-0.00299952318891882896 0.110798835754394531 5.38392066955566406 0.850613653659820557 -0.525460362434387207 -0.0186482854187488556
-5.49700021743774414 3.96750307083129883 3.93789815902709961 -0.887421190738677979 0.191138789057731628 -0.419463425874710083
-2.8706202507019043 3.14438176155090332 3.30299210548400879 -0.337523788213729858 0.227708831429481506 -0.913359940052032471
-3.88628339767456055 1.31817758083343506 5.49700021743774414 -0.334973782300949097 -0.602296590805053711 0.724590539932250977
-0.00300000002607703209 1.20607972145080566 1.95580840110778809 0.488677650690078735 -0.256650835275650024 -0.833861172199249268
-3.71972990036010742 2.66465353965759277 3.30299258232116699 -0.373214185237884521 -0.16105806827545166 -0.913658320903778076
-2.04062938690185547 5.49699974060058594 3.80451226234436035 0.246214285492897034 0.828639328479766846 -0.502727985382080078
-1.23707771301269531 4.77408123016357422 0.00300000002607703209 0.14430314302444458 0.461944073438644409 -0.875091016292572021
-5.49699974060058594 4.93328666687011719 0.525486469268798828 -0.991891205310821533 0.0370437093079090118 0.121571503579616547
-0.400385379791259766 2.4136512279510498 0.00300000002607703209 0.269520670175552368 -0.0541494712233543396 -0.961470961570739746
-0.00300000002607703209 1.63036894798278809 1.70336663722991943 0.209139496088027954 -0.409144014120101929 0.88817894458770752
-0.0292890071868896484 3.1029512882232666 0.00300000002607703209 0.397878021001815796 -0.0314466729760169983 -0.916899204254150391
-5.49700021743774414 3.04895114898681641 5.17223882675170898 -0.983197987079620361 0.146549239754676819 -0.108834818005561829
-5.49700021743774414 0.89823758602142334 5.29731273651123047 -0.95257866382598877 -0.300808250904083252 -0.045916285365819931
-3.63896918296813965 5.49700021743774414 5.35863447189331055 -0.0700792223215103149 0.997126758098602295 -0.0287606287747621536
-5.49700021743774414 2.82140517234802246 3.48654460906982422 -0.49514123797416687 -0.71186220645904541 -0.498083651065826416
-3.68543791770935059 3.28427457809448242 3.30299210548400879 -0.290772587060928345 0.559030830860137939 -0.776489436626434326
-0.00300047686323523521 1.88552963733673096 5.42550468444824219 0.823183953762054443 -0.312425434589385986 0.474086999893188477
-5.49699974060058594 2.8652796745300293 5.34903764724731445 -0.981791317462921143 0.185492128133773804 -0.0409693345427513123
-5.49700021743774414 2.33457112312316895 1.87043976783752441 -0.704132258892059326 0.0202384628355503082 -0.709780395030975342
-0.00300000002607703209 1.62682676315307617 4.63712120056152344 0.956383824348449707 -0.06273660808801651 -0.285296499729156494
-3.75507593154907227 5.49700021743774414 3.91509890556335449 -0.458275914192199707 0.774129271507263184 -0.436700135469436646
-4.83250761032104492 5.49700021743774414 3.74992275238037109 -0.542730808258056641 0.673805534839630127 -0.501427292823791504
-5.49699974060058594 2.70534968376159668 4.72740745544433594 -0.929778397083282471 -0.103230059146881104 -0.353349208831787109
-5.49700021743774414 0.361941337585449219 0.856986522674560547 -0.522548019886016846 -0.298428446054458618 -0.798676431179046631
-0.00300023844465613365 2.49245834350585938 4.94819164276123047 0.942167580127716064 -0.241153150796890259 -0.23273468017578125
-3.93717861175537109 3.64094233512878418 4.46069192886352539 -0.470449000597000122 0.647020041942596436 -0.600035667419433594
-5.16935110092163086 5.49700021743774414 4.87929439544677734 -0.542982637882232666 0.819232583045959473 0.184466004371643066
-0.00300023844465613365 3.82549524307250977 2.80016851425170898 0.634071171283721924 0.324104160070419312 -0.702075660228729248
-5.49700021743774414 -0.697298526763916016 3.58494043350219727 -0.482477128505706787 -0.731521487236022949 -0.481759399175643921
-3.64023756980895996 3.04943132400512695 4.15792369842529297 -0.61723029613494873 -0.213557511568069458 -0.757245004177093506
-0.00299976160749793053 4.05109786987304688 3.84459280967712402 0.79132688045501709 0.488268643617630005 -0.367961287498474121
-5.49699974060058594 2.62304472923278809 4.67236995697021484 -0.887292563915252686 0.276361703872680664 -0.369237154722213745
-5.49700021743774414 5.49897050857543945 4.38305568695068359 -0.741154670715332031 0.633618772029876709 -0.221849098801612854
-2.65028929710388184 5.49700021743774414 4.33127880096435547 -0.152293235063552856 0.8850555419921875 -0.439867526292800903
-0.234084844589233398 5.17471218109130859 5.49700021743774414 0.893798589706420898 -0.119220376014709473 0.43233153223991394
-0.00300071528181433678 5.4692230224609375 3.35547924041748047 0.586920380592346191 0.689872562885284424 -0.423792809247970581
-0.00300000002607703209 1.91587626934051514 4.94617748260498047 0.874484479427337646 -0.438382416963577271 -0.207599997520446777
-0.00300000002607703209 1.89476346969604492 5.13002109527587891 0.986925840377807617 0.0208012275397777557 -0.159826964139938354
-3.54325199127197266 3.13911867141723633 3.30299210548400879 -0.231968089938163757 0.11586134135723114 -0.965798616409301758
-3.65643215179443359 3.10643529891967773 3.52938508987426758 -0.444756835699081421 -0.119096845388412476 0.887697756290435791
-0.00300000002607703209 3.85666942596435547 0.855175018310546875 0.433837205171585083 0.229257062077522278 -0.871336042881011963
-5.49700021743774414 4.06179094314575195 3.32464933395385742 -0.587074518203735352 0.515573680400848389 -0.624121189117431641
-4.40067529678344727 5.49700021743774414 5.38346099853515625 -0.606998860836029053 0.794454813003540039 -0.0198472253978252411
-4.44036340713500977 5.47732877731323242 5.49700021743774414 -0.318337678909301758 -0.157784312963485718 0.934754073619842529
-3.29502558708190918 4.4963536262512207 1.82385969161987305 0.288604438304901123 -0.247717887163162231 -0.924847722053527832
-0.339960575103759766 2.18381166458129883 0.00299952318891882896 0.30916556715965271 -0.158162578940391541 -0.937763988971710205
-5.49700021743774414 2.27496957778930664 0.669723033905029297 -0.425833165645599365 0.00767645100131630898 -0.90476912260055542
-1.19924783706665039 5.23195743560791016 0.00300000002607703209 0.318641692399978638 0.439020216464996338 -0.840076625347137451
-1.35079324245452881 5.49700021743774414 0.0840256214141845703 -0.475960493087768555 0.841844618320465088 0.254478305578231812
-0.00300000002607703209 2.46649932861328125 3.88448452949523926 0.905425846576690674 -0.132433980703353882 -0.403317809104919434
-0.00300023844465613365 -0.331504106521606445 2.30355548858642578 0.553265690803527832 -0.601193010807037354 -0.576596915721893311
-0.00299976160749793053 -0.92269134521484375 3.40451669692993164 0.583791136741638184 -0.639617383480072021 -0.500077545642852783
-0.00300000002607703209 4.76616287231445312 4.71355581283569336 0.641470789909362793 0.744197249412536621 -0.186240732669830322
-1.86053633689880371 5.49700021743774414 5.2645716667175293 0.161615505814552307 0.984589755535125732 -0.0668089687824249268
-1.03811502456665039 4.61583137512207031 5.49700021743774414 0.669662535190582275 -0.717498064041137695 0.191699221730232239
-5.49700021743774414 2.82243204116821289 4.62701129913330078 -0.95317453145980835 -0.0757372230291366577 -0.292783439159393311
-5.49700021743774414 3.45495414733886719 2.15606832504272461 -0.62075340747833252 0.279383331537246704 -0.732536792755126953
-2.88468599319458008 3.13245105743408203 3.30299258232116699 0.0827971547842025757 0.454299658536911011 -0.886992931365966797
-0.00300023844465613365 1.55450665950775146 4.85437774658203125 0.968827903270721436 -0.158858910202980042 -0.190095528960227966
-3.00336074829101562 5.49699974060058594 5.43446159362792969 -0.293680250644683838 0.955863356590270996 -0.00878288503736257553
-0.00300000002607703209 -0.603987216949462891 1.73447871208190918 0.50801771879196167 -0.500753879547119141 -0.700830578804016113
-4.37611818313598633 5.49700021743774414 4.72185516357421875 -0.351152509450912476 0.907518088817596436 -0.230440586805343628
-0.00300000002607703209 1.24850177764892578 4.64928531646728516 0.9447784423828125 -0.221314966678619385 -0.241688624024391174
-5.49700021743774414 0.49534296989440918 0.279877185821533203 -0.552466392517089844 -0.259853780269622803 -0.791995525360107422
-4.79522562026977539 5.49700021743774414 5.00897121429443359 -0.338090717792510986 0.934142053127288818 -0.114338412880897522
-2.51016855239868164 5.49700021743774414 5.30329513549804688 0.27492031455039978 0.960446059703826904 -0.0442971475422382355
-3.56997442245483398 3.40113186836242676 3.30299210548400879 -0.446502745151519775 0.537528932094573975 -0.715330660343170166
-5.49699974060058594 -0.249588727951049805 3.23745441436767578 -0.67306065559387207 -0.568131804466247559 -0.473514169454574585
-5.49700069427490234 1.41967582702636719 2.40739607810974121 -0.6925392746925354 -0.164094999432563782 -0.702468633651733398
-5.49700021743774414 -0.384295225143432617 3.41667604446411133 -0.574075758457183838 -0.707950055599212646 -0.411392450332641602
-5.49700021743774414 0.573061943054199219 3.49509477615356445 -0.669501900672912598 -0.600056886672973633 -0.437834441661834717
-5.49700021743774414 2.20768547058105469 3.44155144691467285 -0.834782183170318604 -0.188059821724891663 -0.517467141151428223
-5.49700021743774414 2.99890351295471191 4.29394435882568359 -0.86121523380279541 0.154778346419334412 -0.48409917950630188
-2.17368888854980469 5.49700021743774414 5.22257518768310547 -0.0952952131628990173 0.991819143295288086 -0.0849327594041824341
-5.49700021743774414 0.747332572937011719 4.29242420196533203 -0.62749403715133667 -0.6723480224609375 -0.39268222451210022
-0.00300000002607703209 3.39400148391723633 1.78848648071289062 0.58778756856918335 0.0502654388546943665 -0.807452261447906494
-2.1360013484954834 1.16369163990020752 2.73572421073913574 0.235830709338188171 -0.344284683465957642 -0.90876394510269165
-2.13586735725402832 1.16289436817169189 2.7347261905670166 0.424683541059494019 0.432806849479675293 -0.795186877250671387
-2.13581538200378418 1.16258478164672852 2.73433852195739746 0.428704947233200073 0.624778389930725098 -0.652582526206970215
-2.64470267295837402 2.06197357177734375 0.00299952318891882896 -0.000659327837638556957 -0.0130736865103244781 -0.999914348125457764
-0.678467512130737305 3.56358480453491211 0.00300000002607703209 0.328526020050048828 0.247783854603767395 -0.911413073539733887
-5.49700021743774414 2.80144429206848145 3.67585849761962891 -0.792573332786560059 0.269965589046478271 -0.546759605407714844
-0.00300000002607703209 2.60120677947998047 5.43344259262084961 0.998817324638366699 0.0468612164258956909 -0.0129628777503967285
-5.34842872619628906 5.49700021743774414 4.18275356292724609 -0.655417144298553467 0.677718222141265869 -0.333356201648712158
-5.04252719879150391 4.46077966690063477 5.49700021743774414 0.179555028676986694 -0.608231008052825928 0.773185014724731445
-0.00300000002607703209 1.86587095260620117 5.17620038986206055 0.993342161178588867 -0.0549055412411689758 -0.10127539187669754
-2.26509523391723633 1.18018007278442383 2.61432194709777832 0.340843021869659424 -0.188165038824081421 -0.921097159385681152
-2.2649681568145752 1.17953920364379883 2.61327219009399414 0.603153526782989502 0.456218540668487549 -0.65427088737487793
-2.26491856575012207 1.17928922176361084 2.61286258697509766 0.618539690971374512 0.615836620330810547 -0.488010197877883911
-3.9940030574798584 0.48494383692741394 0.748324751853942871 -0.28473210334777832 -0.252458572387695312 -0.924766063690185547
-5.49700021743774414 1.94032597541809082 4.96807479858398438 -0.925335049629211426 -0.349347144365310669 -0.147348582744598389
-2.25545740127563477 5.49700021743774414 4.55552864074707031 0.369604498147964478 0.872679471969604492 -0.319097280502319336
-2.72424149513244629 4.20331573486328125 5.49700021743774414 -0.280885100364685059 -0.775147318840026855 0.565906524658203125
-0.00300023844465613365 3.90665268898010254 2.85191655158996582 0.76686328649520874 0.208839178085327148 -0.606882929801940918
-3.33868622779846191 2.79936742782592773 3.30299258232116699 -0.366369783878326416 0.190672755241394043 -0.910723388195037842
-5.49700021743774414 0.269450902938842773 4.92139863967895508 -0.584117710590362549 -0.68373638391494751 0.437391191720962524
-0.00300000002607703209 4.61114978790283203 3.91060113906860352 0.731724739074707031 0.458987414836883545 -0.503894269466400146
-0.00300000002607703209 1.32716035842895508 5.02522945404052734 0.970734894275665283 -0.207468315958976746 -0.120957188308238983
-5.49700021743774414 4.50504875183105469 3.8621668815612793 -0.670521020889282227 0.489791423082351685 -0.557230591773986816
-0.354967832565307617 2.74520277976989746 0.00300000002607703209 0.419504255056381226 -0.0961580798029899597 -0.902646005153656006
-5.49700021743774414 3.12374186515808105 5.29570102691650391 -0.878619670867919922 0.473335146903991699 -0.0630974322557449341
-3.74578619003295898 3.02481627464294434 4.18768024444580078 -0.469930917024612427 0.289374083280563354 -0.833922982215881348
-0.00300000002607703209 2.93849468231201172 4.6446690559387207 0.943634510040283203 0.247977897524833679 -0.219227954745292664
-0.00299976160749793053 2.06320452690124512 5.38335990905761719 0.993564367294311523 -0.111237667500972748 -0.0213559046387672424
-1.42001557350158691 2.32388973236083984 1.65299677848815918 0.328819870948791504 -0.0260057281702756882 -0.94403451681137085
-1.71820223331451416 1.872550368309021 3.00966787338256836 0.485920935869216919 -0.171102464199066162 -0.857090890407562256
-1.71738028526306152 1.87262928485870361 3.00947046279907227 0.0768529027700424194 -0.269394010305404663 -0.959958672523498535
-1.7170485258102417 1.87266135215759277 3.00939083099365234 -0.0830590277910232544 -0.293737530708312988 -0.952270746231079102
-3.81084704399108887 5.49700021743774414 4.63597393035888672 -0.142636477947235107 0.963926494121551514 -0.224723249673843384
-1.06907010078430176 5.49700021743774414 4.10126113891601562 0.353306770324707031 0.818967998027801514 -0.452178895473480225
-0.00300000002607703209 1.84047293663024902 2.20064425468444824 0.251108735799789429 -0.858864128589630127 -0.446426749229431152
-5.49700021743774414 -0.514488697052001953 4.35876798629760742 -0.670248091220855713 -0.666562676429748535 -0.326284795999526978
-3.27269983291625977 5.49700069427490234 3.69567346572875977 -0.125320032238960266 0.888584613800048828 -0.441262125968933105
-4.00910758972167969 4.06410360336303711 5.49700021743774414 -0.304438859224319458 -0.59237515926361084 0.745928049087524414
-5.49700021743774414 2.19221353530883789 3.6902778148651123 -0.854516029357910156 0.0240465477108955383 -0.518868088722229004
-0.00299976160749793053 2.80740475654602051 4.85865497589111328 0.964736461639404297 -0.175411000847816467 -0.196251183748245239
-5.49700021743774414 -0.580361127853393555 3.45804095268249512 -0.532934844493865967 -0.661996662616729736 -0.527011275291442871
-3.38894963264465332 3.21650886535644531 4.00245952606201172 -0.0212889984250068665 0.210244596004486084 -0.9774169921875
-3.01402544975280762 3.16230535507202148 3.30299258232116699 0.469769835472106934 -0.0679153203964233398 -0.880172610282897949
-0.00299952318891882896 0.701525688171386719 3.78218889236450195 0.768808662891387939 -0.627688288688659668 0.122231937944889069
-5.49700021743774414 -0.0657618045806884766 2.68175840377807617 -0.56744462251663208 -0.530803859233856201 -0.629486978054046631
-5.49700021743774414 1.79248785972595215 0.56034088134765625 -0.50009465217590332 -0.117309942841529846 -0.857988178730010986
-0.00299976160749793053 3.54738092422485352 5.02573299407958984 0.856978297233581543 0.499730169773101807 -0.125928282737731934
-0.794849276542663574 5.49700021743774414 5.44890737533569336 0.517546176910400391 0.855642914772033691 -0.00460305297747254372
-0.00300000002607703209 3.80385804176330566 2.81888675689697266 0.663041651248931885 0.370370537042617798 -0.6505393385887146
-1.81384670734405518 3.35740470886230469 0.00299952318891882896 0.302407145500183105 0.185506165027618408 -0.934953153133392334
-1.77456307411193848 5.49700021743774414 0.472440481185913086 0.0179068632423877716 0.976672112941741943 0.213988080620765686
-0.00300000002607703209 3.09786200523376465 2.16652011871337891 0.517146825790405273 -0.699161767959594727 0.493692189455032349
-5.49700021743774414 3.02773404121398926 4.60248947143554688 -0.944510281085968018 -0.0296936575323343277 -0.327136993408203125
-0.00299976160749793053 2.57025408744812012 3.71252131462097168 0.781510531902313232 -0.238301753997802734 -0.576587855815887451
-5.49700021743774414 2.70594906806945801 3.39245915412902832 -0.838388741016387939 -0.0164374746382236481 -0.544824898242950439
-0.960374355316162109 3.66350364685058594 0.00299952318891882896 0.204139038920402527 0.144134640693664551 -0.968272924423217773
-0.00300000002607703209 4.06673049926757812 0.715289115905761719 0.761083900928497314 0.319552034139633179 0.564480066299438477
-1.39586937427520752 2.18567514419555664 2.43525433540344238 0.218002080917358398 -0.267806798219680786 -0.938485264778137207
-1.00710535049438477 2.18026518821716309 1.65299630165100098 0.443672657012939453 -0.00617372989654541016 -0.896167635917663574
-1.5743410587310791 5.1605377197265625 5.49700021743774414 -0.115778759121894836 0.608304798603057861 0.785213708877563477
-1.00986349582672119 2.17574787139892578 1.65299630165100098 -0.453368782997131348 -0.74251246452331543 -0.493084162473678589
-0.89079594612121582 5.49700021743774414 1.9127357006072998 0.401689708232879639 0.651925206184387207 -0.643147647380828857
-2.43568515777587891 4.51165008544921875 0.00300000002607703209 -0.5832405686378479 -0.371998399496078491 -0.722113311290740967
-2.3569180965423584 5.49700021743774414 0.26288604736328125 0.0768476203083992004 0.964264214038848877 0.253552615642547607
-0.290482044219970703 5.49700021743774414 4.4581761360168457 0.583038091659545898 0.753114521503448486 -0.304770529270172119
-0.00300000002607703209 5.14957284927368164 4.20690822601318359 0.560883581638336182 -0.670837581157684326 -0.485166460275650024
-3.99277782440185547 2.13827061653137207 0.00300047686323523521 -0.252691805362701416 0.00913322903215885162 -0.967503726482391357
-0.00300000002607703209 3.27197766304016113 4.54034805297851562 0.894830465316772461 0.272372066974639893 -0.353683292865753174
-5.49700021743774414 2.16665029525756836 4.87494039535522461 -0.965340733528137207 0.0999242216348648071 -0.24110664427280426
-0.00299976160749793053 4.74613285064697266 2.99714255332946777 0.586276531219482422 0.576552450656890869 -0.569093286991119385
-1.53709959983825684 5.49700021743774414 3.70910453796386719 0.428853899240493774 0.781853675842285156 -0.452536404132843018
-3.38937568664550781 5.49700021743774414 3.00579166412353516 -0.0751080363988876343 0.792251110076904297 -0.605555057525634766
-1.49829375743865967 5.49700021743774414 1.82324981689453125 0.296106100082397461 0.46308058500289917 -0.835390627384185791
-0.00300047686323523521 3.56606674194335938 4.54811334609985352 0.86935347318649292 0.427590489387512207 -0.247771933674812317
-5.49700021743774414 0.520147323608398438 4.47900485992431641 -0.676469326019287109 -0.648644626140594482 -0.348782747983932495
-0.00300047686323523521 0.281737565994262695 4.94879913330078125 0.821599960327148438 -0.539357781410217285 -0.184571787714958191
-0.00300023844465613365 4.50405025482177734 5.39798116683959961 0.920823037624359131 0.389262467622756958 -0.0236573256552219391
-5.49700021743774414 3.10622692108154297 4.63850831985473633 -0.963771700859069824 0.0274078845977783203 -0.265316665172576904
-5.49700021743774414 3.59930586814880371 3.40837860107421875 -0.794981539249420166 0.176963880658149719 -0.580248355865478516
-3.57015061378479004 3.42348289489746094 4.37954044342041016 0.0533349998295307159 0.76643216609954834 -0.640107154846191406
-1.65815770626068115 5.0347132682800293 5.49700021743774414 0.697825789451599121 0.588055551052093506 0.408937454223632812
-0.00300000002607703209 0.0748534202575683594 4.66845893859863281 0.313160121440887451 -0.936720430850982666 -0.15647849440574646
-0.00300000002607703209 5.40705394744873047 5.38900947570800781 0.687516629695892334 0.725794196128845215 -0.0233153067529201508
-5.49700021743774414 4.21078109741210938 4.80601310729980469 -0.934162497520446777 0.304012209177017212 -0.186860814690589905
-0.00299952318891882896 1.77000737190246582 5.18844985961914062 0.94659733772277832 -0.294046074151992798 -0.132251203060150146
-3.29506516456604004 2.76249456405639648 2.623138427734375 -0.175001174211502075 0.319828450679779053 -0.931173622608184814
-0.00300000002607703209 0.0517587661743164062 1.87807536125183105 0.515135765075683594 -0.548945605754852295 -0.658250629901885986
-0.00300000002607703209 2.1158607006072998 5.36429452896118164 0.987048149108886719 -0.156353235244750977 -0.0359108410775661469
-5.49700021743774414 1.19135022163391113 5.04868507385253906 -0.89432215690612793 -0.434516042470932007 -0.106694251298904419
-1.68649709224700928 1.49939846992492676 3.01482510566711426 0.341935247182846069 -0.211722463369369507 -0.915562093257904053
-1.68583881855010986 1.49889934062957764 3.01454973220825195 -0.00093631446361541748 0.0622373521327972412 -0.998060941696166992
-1.68557357788085938 1.49869823455810547 3.01443910598754883 -0.13110680878162384 0.163071036338806152 -0.977864384651184082
-5.49700021743774414 2.21411418914794922 5.30364465713500977 -0.991981148719787598 0.0924685969948768616 -0.0861569344997406006
-2.29204654693603516 1.41954421997070312 2.82658600807189941 0.34293895959854126 -0.243400022387504578 -0.907275736331939697
-2.29221963882446289 1.41887748241424561 2.82607889175415039 0.552517175674438477 0.130616053938865662 -0.823203682899475098
-2.29228949546813965 1.41860854625701904 2.82587432861328125 0.604959368705749512 0.266697108745574951 -0.750264585018157959
-4.81444215774536133 2.19123554229736328 0.00300000002607703209 -0.197407081723213196 -0.078181728720664978 -0.977199077606201172
-5.49700021743774414 2.5844733715057373 0.803321242332458496 -0.60950160026550293 0.349611788988113403 0.711533129215240479
-0.00299976160749793053 0.468873023986816406 3.62605810165405273 0.644697844982147217 -0.592980504035949707 -0.482430130243301392
-0.00299976160749793053 0.814730525016784668 4.07471942901611328 0.739425599575042725 -0.504108130931854248 -0.446234017610549927
-2.30997276306152344 3.95552587509155273 0.00300047686323523521 0.0967922955751419067 0.362201333045959473 -0.92706066370010376
-0.00300000002607703209 2.41508722305297852 3.54924154281616211 0.512887418270111084 -0.342026352882385254 0.787378251552581787
-1.64737725257873535 5.49700021743774414 2.61817502975463867 0.246480613946914673 0.624078452587127686 -0.741467058658599854
-4.40080642700195312 5.49700021743774414 2.8778073787689209 -0.398877650499343872 0.620445489883422852 -0.675236225128173828
-4.71031570434570312 5.4813237190246582 5.49700021743774414 -0.117218814790248871 -0.00593705521896481514 0.993088364601135254
-4.75949001312255859 5.49700021743774414 5.47495365142822266 -0.862182140350341797 0.327452272176742554 -0.386544853448867798
-1.74654769897460938 2.78341269493103027 0.00300000002607703209 0.187950626015663147 0.0542322508990764618 -0.980680108070373535
-0.487195253372192383 0.25870203971862793 0.00300000002607703209 0.366130232810974121 -0.236121967434883118 -0.90010833740234375
-0.99841010570526123 5.49700021743774414 1.69082927703857422 0.362481653690338135 0.482267051935195923 -0.79751211404800415
-5.49700069427490234 4.85646438598632812 0.0295648574829101562 -0.929905951023101807 -0.132317230105400085 -0.343172013759613037
-5.49700021743774414 2.47422647476196289 2.91063022613525391 -0.671738326549530029 -0.0982242822647094727 -0.73424762487411499
-2.56808328628540039 1.37640106678009033 1.65299618244171143 -0.0202076919376850128 -0.381690293550491333 -0.924069344997406006
-1.13259196281433105 5.49699974060058594 1.67404842376708984 0.328761190176010132 0.944400787353515625 0.00482145044952630997
-1.21510159969329834 -0.729241847991943359 5.49700021743774414 -0.0112898936495184898 -0.85194474458694458 0.5235099196434021
-5.49700021743774414 3.75346612930297852 5.29161405563354492 -0.981349289417266846 0.179830864071846008 -0.0679292082786560059
-5.49700021743774414 3.07130193710327148 4.82755947113037109 -0.961164951324462891 0.213927760720252991 -0.174346789717674255
-3.44908976554870605 3.92983555793762207 3.30299234390258789 -0.491135269403457642 0.294980376958847046 -0.819617390632629395
-5.49700021743774414 2.89743995666503906 4.72078895568847656 -0.953834235668182373 -0.158913180232048035 -0.254846692085266113
-0.00300000002607703209 0.71808171272277832 5.20387363433837891 0.73555910587310791 -0.670195460319519043 -0.0989484488964080811
-2.13410758972167969 5.49700021743774414 4.52805662155151367 0.331835657358169556 0.893324196338653564 -0.303079187870025635
-3.09503507614135742 -0.772680759429931641 0.00299952318891882896 0.0736015364527702332 -0.544005274772644043 -0.83584749698638916
-5.49700021743774414 -0.78788447380065918 1.41442322731018066 -0.862432122230529785 -0.0054521472193300724 0.506143391132354736
-5.49700021743774414 3.19771099090576172 4.31037712097167969 -0.914335250854492188 0.195182621479034424 -0.3548164963722229
-5.49700021743774414 3.42541408538818359 5.17179965972900391 -0.937739849090576172 0.337623447179794312 -0.0815745294094085693
-1.50692200660705566 -0.296881675720214844 0.00299952318891882896 0.176251515746116638 -0.338307559490203857 -0.924382686614990234
-1.47154068946838379 0.712980985641479492 1.37846112251281738 0.0212114360183477402 0.592776954174041748 0.805087268352508545
-1.32327651977539062 -0.841882228851318359 0.00300000002607703209 0.0711712166666984558 -0.746380805969238281 -0.661702573299407959
-0.00300047686323523521 1.20151519775390625 4.42550516128540039 0.831005692481994629 -0.472923368215560913 -0.292870223522186279
-4.16377353668212891 5.49700021743774414 2.44354867935180664 -0.440100252628326416 0.516634821891784668 -0.734438717365264893
-2.70627975463867188 1.30161416530609131 1.65299582481384277 0.159328579902648926 -0.292943626642227173 -0.942761063575744629
-5.49700021743774414 2.92911934852600098 1.70336711406707764 -0.863965332508087158 0.503310263156890869 0.0155774690210819244
-0.00299976160749793053 -0.268985986709594727 0.311651706695556641 0.408653140068054199 -0.40845257043838501 -0.81619185209274292
-2.15314579010009766 5.49700021743774414 2.00792241096496582 0.0963901132345199585 0.678510308265686035 -0.728239476680755615
-5.49700021743774414 4.68182611465454102 5.22387170791625977 -0.710197925567626953 -0.172978863120079041 0.682420074939727783
-5.49700021743774414 3.91418743133544922 3.7972559928894043 -0.788847208023071289 0.399808585643768311 -0.466768890619277954
-4.34151840209960938 5.49700021743774414 4.25031471252441406 -0.179768294095993042 0.915491402149200439 -0.359942823648452759
-3.92542266845703125 1.5709909200668335 0.00300047686323523521 -0.135194957256317139 -0.295308738946914673 -0.945788085460662842
-5.49700021743774414 4.97202014923095703 5.13399600982666016 -0.247808516025543213 0.535257399082183838 0.807521164417266846
-0.00300000002607703209 4.74587440490722656 2.73766279220581055 0.572919905185699463 0.448189288377761841 -0.68621361255645752
-4.49198150634765625 5.49700021743774414 3.27776765823364258 -0.440070748329162598 0.653195440769195557 -0.616176426410675049
-3.81661701202392578 4.06911230087280273 5.49700021743774414 0.247712284326553345 -0.523725032806396484 0.815077126026153564
-0.00300000002607703209 1.2066338062286377 4.94111728668212891 0.799597859382629395 -0.579078316688537598 -0.159096047282218933
-5.49700021743774414 0.646738529205322266 3.25092315673828125 -0.708322107791900635 -0.442513167858123779 -0.549965322017669678
-3.92217063903808594 2.9997861385345459 4.17383050918579102 -0.6275596022605896 0.46692955493927002 -0.623013436794281006
-5.49700021743774414 1.45298755168914795 4.25148868560791016 -0.713653087615966797 -0.699617862701416016 0.0351247787475585938
-5.49700021743774414 1.73493516445159912 3.75479769706726074 -0.670972764492034912 -0.370663255453109741 -0.642187118530273438
-3.81250548362731934 1.34469699859619141 0.00299952318891882896 -0.211618348956108093 -0.284229427576065063 -0.935110330581665039
-3.20911955833435059 5.49700021743774414 4.44588422775268555 -0.364496827125549316 0.847820878028869629 -0.385151684284210205
-0.00300000002607703209 0.736492633819580078 4.50811195373535156 0.699844002723693848 -0.67144322395324707 -0.243685081601142883
-3.40484380722045898 2.72844028472900391 2.69416260719299316 -0.139025688171386719 0.147223353385925293 -0.979283988475799561
-5.49700021743774414 4.02414846420288086 2.26473474502563477 -0.536888718605041504 0.474617898464202881 -0.697487175464630127
-3.7069098949432373 3.41474103927612305 4.44272232055664062 -0.699416100978851318 0.308694273233413696 -0.644612252712249756
-3.86330556869506836 3.40931415557861328 5.49700021743774414 -0.14632868766784668 -0.00507766008377075195 0.989222943782806396
-5.49700021743774414 4.05797195434570312 5.13375997543334961 -0.808739662170410156 0.582580864429473877 -0.080868251621723175
-5.49700021743774414 3.35997819900512695 5.14608573913574219 -0.885391473770141602 0.438453704118728638 -0.154402881860733032
-0.00300023844465613365 2.82444262504577637 4.98380374908447266 0.983818590641021729 0.0460424907505512238 -0.173150494694709778
-0.00299952318891882896 5.35738706588745117 4.9322972297668457 0.630070149898529053 0.767342805862426758 -0.11914931982755661
-5.49700021743774414 2.69807219505310059 4.03838586807250977 -0.908103406429290771 -0.133784577250480652 -0.396799623966217041
-2.63919663429260254 5.49699974060058594 4.69304466247558594 -0.0800983905792236328 0.973592817783355713 -0.213778495788574219
-3.05881166458129883 5.20652866363525391 5.49700021743774414 -0.439483433961868286 -0.304224282503128052 0.845163822174072266
-4.18464469909667969 5.49700021743774414 4.60358953475952148 -0.767489016056060791 0.200061708688735962 -0.609045147895812988
-0.00300000002607703209 2.45355606079101562 4.47627735137939453 0.917410731315612793 -0.0973522067070007324 -0.38584977388381958
-3.54371809959411621 2.94068479537963867 3.30299258232116699 -0.00678764469921588898 0.347912430763244629 -0.937502443790435791
-5.49700021743774414 3.60191488265991211 3.7463691234588623 -0.926238417625427246 0.313071787357330322 0.209924995899200439
-0.962500929832458496 5.49700021743774414 5.05830478668212891 0.374184906482696533 0.918552935123443604 -0.127460658550262451
-0.00300000002607703209 3.79657340049743652 3.82534575462341309 0.416591107845306396 -0.735981225967407227 -0.533651113510131836
-4.60127687454223633 5.49700021743774414 3.30141377449035645 -0.547981619834899902 0.677720606327056885 -0.49031713604927063
-3.57384634017944336 1.88297843933105469 0.00300000002607703209 -0.0244446750730276108 -0.00482105650007724762 -0.999689579010009766
-5.49700021743774414 4.32932424545288086 4.825225830078125 -0.783603370189666748 0.599938809871673584 -0.161366522312164307
-3.76983451843261719 2.93653512001037598 3.90982365608215332 -0.662648677825927734 0.3848763108253479 -0.642469406127929688
-5.49700021743774414 0.757555484771728516 1.72463440895080566 -0.489042520523071289 -0.615902841091156006 -0.617658019065856934
-5.00631856918334961 5.49700021743774414 4.82493352890014648 -0.6442069411277771 0.75110936164855957 -0.144333392381668091
