ply
format ascii 1.0
element vertex 379
property float x
property float y
property float z
property float nx
property float ny
property float nz
end_header
-0.00300000002607703209 5.47604846954345703 2.12223386764526367 0.952038407325744629 -0.0104202274233102798 0.305801033973693848
-0.00299952318891882896 1.46013116836547852 4.57098627090454102 0.94928818941116333 -0.192856714129447937 0.248310640454292297
-0.00299976160749793053 2.68539595603942871 0.0484840869903564453 0.628709554672241211 0.769733667373657227 0.110609129071235657
-5.49700021743774414 1.41362786293029785 5.4087071418762207 -0.451741129159927368 -0.538758158683776855 0.711104512214660645
-3.95091986656188965 4.29288911819458008 2.66647076606750488 -0.1626090407371521 -0.889691948890686035 -0.426622241735458374
-5.20383167266845703 5.49700021743774414 4.50638866424560547 0.23033277690410614 0.740164756774902344 0.63174593448638916
-4.69000530242919922 5.14295721054077148 0.00300000002607703209 -0.0726053565740585327 -0.0820345282554626465 -0.993981301784515381
-0.00300000002607703209 3.51649045944213867 3.34463214874267578 0.721944868564605713 0.656600713729858398 0.218337059020996094
-3.24779129028320312 2.77715969085693359 1.85924017429351807 0.300451725721359253 0.920588672161102295 0.249490201473236084
-0.594391107559204102 2.88911557197570801 0.00299976160749793053 0.352311789989471436 -0.624960482120513916 -0.696635305881500244
-4.03531074523925781 3.52743887901306152 3.30299234390258789 0.762015163898468018 0.556704282760620117 -0.330776751041412354
-2.63227963447570801 5.00363445281982422 5.49700021743774414 0.503744125366210938 0.700799107551574707 0.505096852779388428
-4.72941112518310547 2.30631446838378906 5.49700021743774414 0.0404613316059112549 0.240769147872924805 0.969738662242889404
-0.00300000002607703209 3.15464591979980469 0.0962107181549072266 0.951549708843231201 -0.28449365496635437 0.116689763963222504
-5.03582859039306641 5.49700021743774414 3.16691756248474121 0.309216558933258057 0.526049613952636719 -0.792248010635375977
-3.64863777160644531 4.38665962219238281 0.586417555809020996 0.507147848606109619 -0.19520626962184906 -0.839461445808410645
-2.61912322044372559 2.08953762054443359 5.49700021743774414 0.506174564361572266 -0.637258529663085938 0.581109821796417236
-4.50280427932739258 5.49699974060058594 1.36395132541656494 0.227673321962356567 0.967998266220092773 -0.105566129088401794
-2.02878165245056152 1.79050564765930176 3.01656723022460938 0.220627278089523315 -0.0793784037232398987 -0.972122788429260254
-0.367296934127807617 5.31827068328857422 0.00300000002607703209 0.948815762996673584 -0.0724134519696235657 -0.307416558265686035
-5.49700021743774414 1.7668532133102417 3.37556242942810059 -0.984238862991333008 -0.0204377174377441406 0.175658583641052246
-5.01560306549072266 1.69566929340362549 0.00299976160749793053 0.202726453542709351 0.629438996315002441 -0.750138998031616211
-1.68517136573791504 5.49700021743774414 3.77677202224731445 0.656834900379180908 0.723728656768798828 0.211623996496200562
-4.48989963531494141 2.75865840911865234 5.49700021743774414 0.723655462265014648 0.410614281892776489 0.554723978042602539
-2.30914044380187988 1.83121776580810547 1.65299630165100098 -0.186141923069953918 -0.969009220600128174 -0.162395402789115906
-1.66290020942687988 3.47001552581787109 5.49700021743774414 0.951207518577575684 -0.0305254850536584854 0.307038187980651855
-0.00299976160749793053 2.1809380054473877 2.13898801803588867 0.980206608772277832 7.30506944819353521e-05 0.197977334260940552
-5.47982263565063477 1.74007225036621094 5.49700021743774414 0.0151077080518007278 -0.442861795425415039 0.896462619304656982
-0.1432037353515625 1.7905888557434082 0.00299952318891882896 0.460974454879760742 -0.674292147159576416 -0.576916515827178955
-3.26687860488891602 5.49700021743774414 3.43512153625488281 0.842094838619232178 0.534103631973266602 -0.0748971551656723022
-1.78849244117736816 1.97249424457550049 2.97874736785888672 0.164642170071601868 -0.283996611833572388 -0.9445839524269104
-4.65599489212036133 3.86164021492004395 1.31241226196289062 0.643605589866638184 0.60172504186630249 -0.472968041896820068
-1.86156868934631348 3.89207291603088379 0.00300000002607703209 0.0964565947651863098 -0.530504286289215088 -0.842176556587219238
-0.00300023844465613365 1.67967391014099121 0.0630965232849121094 0.490592867136001587 -0.600045979022979736 -0.631873011589050293
-1.08360838890075684 5.37722206115722656 5.49700021743774414 0.676829159259796143 -0.181926503777503967 0.71330571174621582
-0.00300000002607703209 4.67874288558959961 4.99598026275634766 0.955165326595306396 -0.287575691938400269 0.0704230815172195435
-1.93693256378173828 4.80971813201904297 5.49700021743774414 -0.705447971820831299 -0.553521037101745605 0.442671060562133789
-2.17618322372436523 1.5760493278503418 2.9614403247833252 0.338385522365570068 0.0247037895023822784 -0.940683245658874512
-1.49928689002990723 2.16279745101928711 2.69386839866638184 -0.262226492166519165 -0.6144447922706604 -0.744106829166412354
-4.5050201416015625 -0.247096538543701172 5.49700021743774414 0.836067378520965576 0.415117651224136353 0.358704179525375366
-4.26517772674560547 2.60178875923156738 1.92723274230957031 0.418160885572433472 -0.255111247301101685 0.871814072132110596
-0.00300023844465613365 4.28572463989257812 0.0925836563110351562 0.916817128658294678 0.397596627473831177 0.0369220972061157227
-4.20315837860107422 3.40037155151367188 5.49700021743774414 0.410525053739547729 -0.655098795890808105 0.634282886981964111
-0.00300023844465613365 2.51880598068237305 3.5706028938293457 0.976867079734802246 -0.192986443638801575 0.0921245738863945007
-3.16121768951416016 2.8040156364440918 3.21689891815185547 -0.716967582702636719 0.648646891117095947 0.255372107028961182
-3.54251360893249512 3.65691637992858887 3.4336543083190918 -0.245660662651062012 -0.758896946907043457 0.603097200393676758
-3.93142414093017578 3.63230109214782715 5.49700021743774414 0.165995389223098755 0.247947141528129578 0.954446196556091309
-5.49700021743774414 3.49551963806152344 5.14132404327392578 -0.876543521881103516 0.0948357284069061279 0.471887111663818359
-3.86450028419494629 4.22307252883911133 5.49700021743774414 -0.125211149454116821 0.556023657321929932 0.821681082248687744
-1.46215081214904785 2.79808688163757324 5.49700021743774414 -0.0440680868923664093 -0.771142005920410156 0.635136246681213379
-5.22042560577392578 4.19933080673217773 0.00300000002607703209 0.0442638881504535675 0.741689503192901611 -0.669281244277954102
-4.23749351501464844 0.6492881178855896 0.924130856990814209 0.112348467111587524 0.992559075355529785 0.0469513796269893646
-0.00300000002607703209 2.34756588935852051 2.96636390686035156 0.892522335052490234 0.44215121865272522 -0.0889163538813591003
-5.40007877349853516 5.49700021743774414 3.67287588119506836 -0.498207896947860718 0.859357237815856934 0.115299560129642487
-2.81613492965698242 1.3480381965637207 0.594331443309783936 0.649822652339935303 -0.121788486838340759 0.750265359878540039
-4.53900527954101562 5.25901508331298828 5.49700021743774414 0.299439132213592529 -0.814605236053466797 0.496743857860565186
-0.00300000002607703209 4.81766223907470703 3.5453038215637207 0.695035338401794434 -0.352400660514831543 -0.626689434051513672
-4.53013467788696289 3.45591211318969727 2.14609003067016602 0.343445241451263428 0.0723391026258468628 -0.936382651329040527
-1.02108883857727051 4.19773054122924805 5.49700021743774414 0.254214465618133545 -0.471330046653747559 0.844525337219238281
-4.8305506706237793 5.49700021743774414 4.86907100677490234 0.24121171236038208 0.965730905532836914 -0.0958164110779762268
-0.88716435432434082 2.31526327133178711 5.49699926376342773 0.101789534091949463 -0.401203721761703491 0.910315573215484619
-2.41155385971069336 2.02941322326660156 2.50892376899719238 0.681181132793426514 -0.464254230260848999 -0.566092073917388916
-5.22907352447509766 0.831770896911621094 5.49700021743774414 0.554879903793334961 -0.258337259292602539 0.790803492069244385
-4.36296463012695312 5.40798187255859375 5.49700021743774414 0.419733673334121704 -0.574326515197753906 0.702831923961639404
-4.02394294738769531 5.14809131622314453 5.49700021743774414 0.272766411304473877 -0.100297890603542328 0.956837952136993408
-4.60638761520385742 5.49700021743774414 3.38572549819946289 0.32815590500831604 0.85132288932800293 -0.409344643354415894
-5.49700021743774414 2.03539228439331055 5.02646064758300781 -0.59331899881362915 0.113717421889305115 0.796894550323486328
-1.15952682495117188 5.31402730941772461 5.49700021743774414 0.0785905569791793823 -0.605928957462310791 0.791627168655395508
-0.563138961791992188 0.838407039642333984 5.49700021743774414 0.891381382942199707 0.106934480369091034 0.440459102392196655
-3.74143886566162109 2.46568751335144043 5.49700021743774414 0.937599062919616699 0.101407453417778015 0.332602649927139282
-3.8351294994354248 5.49700021743774414 5.39862728118896484 0.60354316234588623 0.797097265720367432 0.0192762352526187897
-2.64146232604980469 4.39338397979736328 5.49700021743774414 0.22527584433555603 0.191225722432136536 0.955344676971435547
-5.49700021743774414 4.10598373413085938 4.92653560638427734 -0.858184754848480225 0.428761541843414307 0.28228074312210083
-0.00300000002607703209 -0.622760295867919922 3.90480661392211914 0.999599874019622803 0.0125102922320365906 -0.0253699775785207748
-5.49118232727050781 2.6539762020111084 5.49700021743774414 0.0297630876302719116 -0.617357254028320312 0.786119699478149414
-0.00300000002607703209 5.45928287506103516 5.48128175735473633 0.808077335357666016 -0.0742615014314651489 0.584376811981201172
-1.87702822685241699 2.27051043510437012 2.02429080009460449 0.352543830871582031 -0.350393533706665039 0.867719531059265137
-5.49700021743774414 1.47801828384399414 5.39498233795166016 -0.635937988758087158 -0.629637360572814941 0.446250975131988525
-1.85438966751098633 5.1121525764465332 5.49700021743774414 -0.273708432912826538 -0.244462981820106506 0.930226624011993408
-3.12941813468933105 5.49700021743774414 3.46010971069335938 0.190826952457427979 0.897172808647155762 -0.398329108953475952
-2.65898656845092773 4.17800331115722656 5.49700021743774414 0.556706488132476807 0.401154696941375732 0.727428555488586426
-3.6985163688659668 5.33320426940917969 5.49700021743774414 -0.0983989909291267395 -0.461563766002655029 0.881632864475250244
-5.41051197052001953 2.21342182159423828 5.49700021743774414 0.0390474237501621246 -0.748251199722290039 0.662265360355377197
-3.15729808807373047 5.49700021743774414 4.3487858772277832 0.205825209617614746 0.977932333946228027 0.0358343124389648438
-4.43091773986816406 4.14398956298828125 2.69654965400695801 -0.511673390865325928 -0.854507744312286377 -0.0894808322191238403
-5.49700021743774414 2.56837797164916992 3.49790453910827637 -0.865334391593933105 -0.292583674192428589 -0.406928986310958862
-0.00300000002607703209 4.16617965698242188 1.53836119174957275 0.729304850101470947 -0.48643067479133606 -0.481144100427627563
-4.97968292236328125 5.49700021743774414 4.80632543563842773 0.200179487466812134 0.976752400398254395 -0.0767000094056129456
-2.85617184638977051 2.62216401100158691 0.00300000002607703209 0.229836493730545044 -0.232311248779296875 -0.945096135139465332
-5.08543109893798828 -0.370491743087768555 0.00300000002607703209 0.122311286628246307 -0.240909993648529053 -0.962809622287750244
-0.00300047686323523521 4.27763748168945312 1.49299049377441406 0.782635688781738281 -0.319396466016769409 -0.534291446208953857
-3.1515350341796875 -0.531462430953979492 5.49700021743774414 0.799791991710662842 -0.556483328342437744 0.225075677037239075
-0.00300000002607703209 4.10219955444335938 5.42301273345947266 0.92324376106262207 0.204660683870315552 0.325169622898101807
-4.18712902069091797 3.06053948402404785 4.10721635818481445 0.640261352062225342 0.51074528694152832 -0.573763608932495117
-4.02769136428833008 0.73365473747253418 5.49700021743774414 0.659685194492340088 0.298325031995773315 0.689795374870300293
-3.4960014820098877 4.82263565063476562 5.49700021743774414 0.540303707122802734 -0.395661383867263794 0.742646574974060059
-5.49700021743774414 3.7689213752746582 3.32101917266845703 -0.555567026138305664 -0.541349589824676514 -0.631098926067352295
-5.47650718688964844 4.75156974792480469 5.49700021743774414 0.0808411762118339539 -0.208466708660125732 0.97468268871307373
-3.51874566078186035 3.25066304206848145 3.50949263572692871 -0.765516817569732666 -0.243693575263023376 0.595480918884277344
-0.466567277908325195 5.49700021743774414 3.01966190338134766 0.777335405349731445 0.552415132522583008 -0.300976961851119995
-5.22299385070800781 4.56048011779785156 0.00300023844465613365 -0.681226432323455811 -0.168351307511329651 -0.712452411651611328
-4.59701681137084961 5.49700021743774414 3.94005990028381348 0.261917233467102051 0.923449158668518066 0.280429989099502563
-2.26735091209411621 1.65282285213470459 1.80887579917907715 0.870533227920532227 0.389174818992614746 -0.301189064979553223
-4.17600488662719727 2.48921871185302734 0.338019132614135742 -0.205257073044776917 0.903292715549468994 0.376738399267196655
-0.00300000002607703209 4.73149538040161133 2.07101058959960938 0.421374708414077759 -0.686061620712280273 -0.593095958232879639
-2.53247380256652832 3.52784395217895508 5.49700021743774414 0.235257521271705627 -0.707633376121520996 0.666264891624450684
-1.97851502895355225 2.23186111450195312 5.49700021743774414 0.645823657512664795 -0.538133025169372559 0.541594505310058594
-0.00300023844465613365 3.3822333812713623 4.7803497314453125 0.989094376564025879 -0.0199126601219177246 0.145929694175720215
-4.02487850189208984 2.53609991073608398 2.75739812850952148 0.44917064905166626 0.835303187370300293 0.317039906978607178
-5.49700021743774414 0.811005830764770508 4.81998538970947266 -0.579618930816650391 -0.79403984546661377 0.183146178722381592
-4.67031764984130859 0.261200755834579468 0.926996886730194092 0.637685120105743408 -0.364206552505493164 -0.678757131099700928
-3.28816366195678711 3.28793597221374512 5.49700021743774414 0.452035456895828247 0.591410577297210693 0.667755544185638428
-1.07531642913818359 2.32290244102478027 1.22069191932678223 0.445700615644454956 -0.796276330947875977 0.409017086029052734
-0.00300000002607703209 -0.949465274810791016 5.44639253616333008 0.259113132953643799 -0.948482096195220947 0.182324245572090149
-1.51206004619598389 2.45323443412780762 0.604884803295135498 0.167725726962089539 -0.886904656887054443 0.43042793869972229
-0.00300023844465613365 4.86983585357666016 4.22860431671142578 0.932126164436340332 0.361640959978103638 -0.0188861489295959473
-4.144683837890625 0.745725154876708984 5.49700021743774414 0.873060226440429688 -0.203513652086257935 0.44311174750328064
-5.49700021743774414 5.09310245513916016 4.40870237350463867 -0.814204633235931396 -0.493166565895080566 0.306361734867095947
-3.50969028472900391 1.28889703750610352 0.00300023844465613365 0.656166434288024902 -0.175037845969200134 -0.734035015106201172
-4.00014257431030273 4.27761983871459961 0.811986327171325684 0.0947565361857414246 -0.386195242404937744 -0.917537152767181396
-4.38306665420532227 0.559312283992767334 0.858632028102874756 -0.293925613164901733 0.639698803424835205 0.710206449031829834
-0.777463436126708984 5.49700021743774414 3.50881385803222656 0.780510842800140381 0.601820170879364014 -0.169160336256027222
-2.04532527923583984 2.49840974807739258 5.49700069427490234 0.252467423677444458 -0.702544510364532471 0.665350615978240967
-2.40358829498291016 1.47692668437957764 2.71949601173400879 0.70451730489730835 -0.0117866098880767822 -0.709589004516601562
-0.265546560287475586 4.44219589233398438 5.49700021743774414 0.77889782190322876 -0.333144098520278931 0.531350374221801758
-5.49700069427490234 2.97776317596435547 3.7278437614440918 -0.669299662113189697 -0.714040756225585938 -0.205386891961097717
-4.51091432571411133 3.39395427703857422 2.98558187484741211 0.922150373458862305 0.375021398067474365 0.0948559939861297607
-0.00300000002607703209 5.02962398529052734 0.981678009033203125 0.743468761444091797 -0.507044434547424316 -0.436073511838912964
-1.48000574111938477 4.37206745147705078 5.49700069427490234 0.432515531778335571 -0.255639821290969849 0.864626288414001465
-1.86583209037780762 5.49700021743774414 0.179216861724853516 0.766957640647888184 0.618396222591400146 0.171353712677955627
-5.08458709716796875 -0.0226912498474121094 5.49700021743774414 0.124164491891860962 -0.447952330112457275 0.885393619537353516
-4.44479084014892578 5.06198406219482422 5.49700021743774414 -0.955125331878662109 -0.1614370197057724 0.248341843485832214
-0.00300000002607703209 1.35159873962402344 2.16720819473266602 0.705271661281585693 -0.608107566833496094 0.364413350820541382
-4.55919361114501953 3.54958796501159668 2.91114664077758789 0.453216046094894409 0.0378425084054470062 -0.890597045421600342
-5.01204347610473633 -0.223925590515136719 0.00299952318891882896 0.229959443211555481 0.270103752613067627 -0.934966623783111572
-2.75116777420043945 1.56574428081512451 0.272684693336486816 0.90738147497177124 0.127937868237495422 0.400363266468048096
-4.33885097503662109 5.49700021743774414 5.03091621398925781 0.745129644870758057 0.58189922571182251 0.325845181941986084
-0.691453695297241211 5.49700021743774414 4.07970046997070312 0.812410712242126465 0.579253196716308594 -0.0667426586151123047
-4.64770650863647461 0.33655509352684021 0.63165128231048584 0.0602924302220344543 -0.757330536842346191 -0.650242507457733154
-4.33711338043212891 2.83368420600891113 3.21562337875366211 0.789737403392791748 0.366823017597198486 -0.491686582565307617
-0.337419033050537109 0.175409317016601562 5.49700021743774414 0.654285907745361328 -0.182823628187179565 0.733815670013427734
-5.48112297058105469 4.68654298782348633 5.49700021743774414 0.121745787560939789 -0.0168919209390878677 0.992417573928833008
-2.02794837951660156 1.91161787509918213 2.98112320899963379 0.389210700988769531 -0.321682393550872803 -0.863154351711273193
-1.98872923851013184 1.02131319046020508 2.56442499160766602 0.295516937971115112 0.696007072925567627 -0.654403507709503174
-5.49700021743774414 3.97771167755126953 5.47677898406982422 -0.721165060997009277 -0.64743572473526001 0.246470913290977478
-2.25490117073059082 2.6749107837677002 1.62251663208007812 -0.123266816139221191 -0.948670804500579834 -0.291254252195358276
-1.90682744979858398 2.16539859771728516 5.49700021743774414 0.611239016056060791 -0.411200016736984253 0.676240622997283936
-3.06429481506347656 3.08484506607055664 3.30299258232116699 0.528938591480255127 -0.138020455837249756 -0.837361454963684082
-3.44753265380859375 2.92902255058288574 3.30299258232116699 0.106564223766326904 -0.210497364401817322 -0.97176891565322876
-5.49700021743774414 5.45429801940917969 3.95615959167480469 -0.954005122184753418 -0.268913388252258301 0.132513388991355896
-5.49700021743774414 2.65030741691589355 3.03055381774902344 -0.760744690895080566 -0.213642165064811707 -0.612882018089294434
-3.43010878562927246 3.33762526512145996 3.55895543098449707 -0.896347641944885254 0.258605122566223145 0.360117137432098389
-1.05719900131225586 2.06322550773620605 5.49700021743774414 0.495140731334686279 -0.25484737753868103 0.830595314502716064
-0.00300023844465613365 4.85064697265625 5.05108308792114258 0.8549996018409729 0.200205504894256592 0.478428095579147339
-0.305239677429199219 4.57371664047241211 5.49700021743774414 0.848096787929534912 -0.237356707453727722 0.473702013492584229
-5.49700021743774414 5.29939889907836914 2.86213779449462891 -0.583858132362365723 -0.787196516990661621 0.19857323169708252
-2.76302766799926758 3.19666385650634766 5.49700021743774414 0.546579599380493164 -0.0900735855102539062 0.832548558712005615
-4.97830772399902344 0.738612651824951172 5.49699974060058594 0.248339027166366577 -0.690817296504974365 0.679042816162109375
-3.09613633155822754 3.92806649208068848 5.49700021743774414 0.362117886543273926 0.338235557079315186 0.868600726127624512
-2.82650351524353027 1.31329226493835449 1.56326460838317871 0.485156834125518799 0.0569381751120090485 0.872571408748626709
-3.04977297782897949 2.31359004974365234 5.49699926376342773 0.254538804292678833 0.414490640163421631 0.87373197078704834
-3.95190525054931641 -0.332460641860961914 0.7483254075050354 0.653404474258422852 -0.104068540036678314 -0.74982154369354248
-3.96039628982543945 3.02850437164306641 5.49700021743774414 -0.16294434666633606 -0.196502149105072021 0.966868996620178223
-5.49700021743774414 0.327933311462402344 0.401534557342529297 -0.128386735916137695 -0.717359006404876709 -0.684772133827209473
-4.882843017578125 2.95430779457092285 5.49700021743774414 0.90758514404296875 -0.264061272144317627 0.326436549425125122
-4.80429172515869141 2.6046905517578125 5.49700021743774414 0.649773478507995605 0.543686747550964355 0.531224250793457031
-5.49700021743774414 -0.705032587051391602 2.01803684234619141 -0.511510193347930908 -0.829694867134094238 0.22352561354637146
-4.50124883651733398 3.36279463768005371 1.80664455890655518 0.451241552829742432 0.862098157405853271 0.230581402778625488
-5.11422348022460938 1.08761346340179443 5.49700021743774414 0.236026018857955933 -0.476730138063430786 0.846770405769348145
-1.62372183799743652 4.19600009918212891 5.49700021743774414 -0.57527005672454834 -0.4991169273853302 0.648032963275909424
-4.3103485107421875 2.74740290641784668 1.95427894592285156 0.738126218318939209 0.135218679904937744 -0.660973191261291504
-5.49700021743774414 2.07586455345153809 4.73094940185546875 -0.778660058975219727 -0.625054895877838135 0.0547254756093025208
-5.31365680694580078 1.00182056427001953 5.49700021743774414 0.186405166983604431 -0.98127824068069458 0.0484363846480846405
-1.05485725402832031 4.06528759002685547 0.00300095370039343834 0.413548141717910767 -0.256216108798980713 -0.873688280582427979
-5.49700021743774414 2.24392247200012207 3.92578887939453125 -0.921912014484405518 -0.230641305446624756 0.311260044574737549
-5.49700021743774414 3.98057246208190918 1.06659555435180664 -0.403563201427459717 -0.334089517593383789 -0.851775169372558594
-3.61809754371643066 4.02397871017456055 3.79963183403015137 -0.265269666910171509 -0.838505327701568604 -0.475962996482849121
-5.49700021743774414 3.83694911003112793 3.51421117782592773 -0.801360130310058594 0.336734414100646973 -0.494400501251220703
-0.00300000002607703209 2.61739397048950195 0.00924205780029296875 0.962213456630706787 0.271963149309158325 0.0134632531553506851
-4.38608312606811523 2.99154448509216309 0.0901900529861450195 0.274187624454498291 -0.344524562358856201 -0.897844076156616211
-4.18242740631103516 1.79900097846984863 0.00300000002607703209 0.237572446465492249 -0.453626364469528198 -0.858942627906799316
-4.43710756301879883 5.49700021743774414 3.59399557113647461 0.77321624755859375 0.367321103811264038 -0.516925394535064697
-0.00299976160749793053 3.82150363922119141 4.29322004318237305 0.946095526218414307 0.204728260636329651 0.250977307558059692
-5.41539144515991211 3.4003140926361084 5.49700021743774414 0.0773792564868927002 0.497871756553649902 0.863791704177856445
-2.8933718204498291 4.29900121688842773 5.49700021743774414 0.525605380535125732 0.558081209659576416 0.6420937180519104
-3.79887008666992188 3.57061314582824707 5.49700021743774414 -0.042910456657409668 0.172803521156311035 0.984021186828613281
-2.16721963882446289 2.05373239517211914 2.83253979682922363 0.3138161301612854 -0.395888715982437134 -0.863013088703155518
-0.919321298599243164 5.49700021743774414 3.20115900039672852 0.736846208572387695 0.602765023708343506 -0.306156694889068604
-0.480917453765869141 5.49700021743774414 5.01511764526367188 0.8270416259765625 0.523317515850067139 0.205282688140869141
-3.94435930252075195 5.49700021743774414 4.14136028289794922 0.550466001033782959 0.787765622138977051 0.276428073644638062
-1.85296237468719482 1.6880195140838623 3.05497860908508301 0.202669531106948853 -0.0490130670368671417 -0.978019833564758301
-1.88992655277252197 2.15027856826782227 2.851715087890625 0.158733487129211426 -0.568082332611083984 -0.807518601417541504
-0.852293491363525391 5.48754310607910156 5.49700021743774414 0.0955437123775482178 -0.0473553724586963654 0.994298160076141357
-3.96613144874572754 -0.00940465927124023438 5.49700021743774414 -0.418806314468383789 -0.847312331199645996 0.326593220233917236
-5.28310871124267578 1.31662452220916748 5.49700021743774414 0.167563915252685547 -0.299658626317977905 0.939216196537017822
-1.67667412757873535 2.23795223236083984 2.00735783576965332 -0.340437382459640503 -0.188557848334312439 0.921166837215423584
-0.00300047686323523521 4.63902521133422852 1.67267727851867676 0.781970739364624023 0.261612832546234131 -0.565756559371948242
-3.67208337783813477 1.41904020309448242 0.00300000002607703209 0.5006142258644104 0.11590932309627533 -0.857875525951385498
-3.91609501838684082 5.49700021743774414 4.77032470703125 0.27092278003692627 0.931409537792205811 0.243057966232299805
-0.00300000002607703209 0.210612297058105469 4.02141618728637695 0.712016463279724121 -0.541217386722564697 0.447343766689300537
-0.079906463623046875 3.6681220531463623 5.49700021743774414 0.174521952867507935 -0.404654473066329956 0.897661864757537842
-0.00300000002607703209 5.36585617065429688 3.95895290374755859 0.594008922576904297 -0.324222713708877563 -0.73622894287109375
-3.43462753295898438 4.45304727554321289 0.221007704734802246 -0.567555010318756104 -0.733179926872253418 0.37460443377494812
-5.28354215621948242 5.49700021743774414 3.73022913932800293 0.46845051646232605 0.259386122226715088 0.844554901123046875
-4.80943107604980469 0.779806613922119141 0.00299976160749793053 0.179418846964836121 0.1176004558801651 -0.976718485355377197
-4.58246707916259766 4.09697723388671875 1.28729522228240967 -0.664300680160522461 -0.425666660070419312 0.614420473575592041
-2.50013303756713867 5.49700021743774414 3.90148639678955078 0.439022600650787354 0.839729845523834229 0.319551199674606323
-3.84646177291870117 3.03519296646118164 5.49700021743774414 0.0327433347702026367 -0.361621737480163574 0.93174976110458374
-4.96800947189331055 3.49808883666992188 5.49700021743774414 -0.725879132747650146 0.0431224852800369263 0.686469018459320068
-4.43417787551879883 5.49700021743774414 4.53613948822021484 0.453842788934707642 0.827555298805236816 -0.330422431230545044
-5.49700021743774414 5.32847213745117188 5.19632720947265625 -0.994513332843780518 -0.0787828788161277771 -0.0688218101859092712
-0.00300000002607703209 2.05839276313781738 2.96049284934997559 0.871855854988098145 -0.46122819185256958 -0.164729863405227661
-5.49700021743774414 2.65583634376525879 2.57491922378540039 -0.676455795764923096 -0.171585202217102051 -0.716216504573822021
-3.51275491714477539 1.1737208366394043 5.49700021743774414 -0.250074535608291626 -0.549630999565124512 0.797100067138671875
-2.2902374267578125 5.49700021743774414 4.15669441223144531 0.533140361309051514 0.845123887062072754 -0.0390785932540893555
-0.00300000002607703209 3.58968973159790039 0.106811761856079102 0.679363489151000977 -0.329999089241027832 -0.655412733554840088
-2.01756119728088379 1.50590062141418457 3.01228666305541992 0.301724791526794434 0.104817897081375122 -0.947615623474121094
-5.14733314514160156 -0.215488195419311523 0.00300000002607703209 0.24204900860786438 -0.891648948192596436 -0.382589191198348999
-5.49700021743774414 0.908285737037658691 0.213639736175537109 -0.0874723196029663086 -0.225006818771362305 0.970422863960266113
-0.00300023844465613365 2.8365933895111084 1.8636620044708252 0.611121714115142822 -0.752108752727508545 -0.246703609824180603
-5.49700021743774414 2.4773249626159668 3.64336061477661133 -0.862758040428161621 -0.349352777004241943 -0.365514874458312988
-2.57549595832824707 2.15442228317260742 0.386075317859649658 0.585374057292938232 -0.277806013822555542 -0.761683046817779541
-1.18916654586791992 4.58418941497802734 5.49700021743774414 0.996874213218688965 0.0527680367231369019 0.0587996020913124084
-2.8880617618560791 3.04571008682250977 5.49699974060058594 0.0554081685841083527 -0.304429709911346436 0.950921893119812012
-4.65330362319946289 2.29851102828979492 5.49700021743774414 -0.200200319290161133 -0.890622973442077637 0.408301979303359985
-5.49700021743774414 5.28854799270629883 2.54720687866210938 -0.906284749507904053 -0.189197540283203125 0.377958029508590698
-5.32095909118652344 -0.124948024749755859 5.49700021743774414 0.68845289945602417 0.098370090126991272 0.71857905387878418
-2.64532232284545898 5.49700021743774414 5.02569055557250977 0.110140316188335419 0.832026243209838867 0.543692409992218018
-2.48503923416137695 1.41379117965698242 2.41360759735107422 0.753780722618103027 -0.209469497203826904 -0.622846007347106934
-0.267073154449462891 4.12791728973388672 5.49700021743774414 0.484925687313079834 -0.867922067642211914 0.107509985566139221
-2.12301397323608398 2.37753057479858398 5.49700021743774414 0.249058112502098083 -0.492042481899261475 0.834184825420379639
-5.46903133392333984 -0.374819040298461914 5.49700021743774414 0.0108379069715738297 -0.739921748638153076 0.672605633735656738
-5.33461475372314453 3.36795234680175781 0.00300000002607703209 0.0347700044512748718 0.915498971939086914 -0.400815039873123169
-2.13900136947631836 1.64659178256988525 2.98710536956787109 0.398481667041778564 0.00874400138854980469 -0.917134642601013184
-0.471239805221557617 4.92665195465087891 5.49700021743774414 -0.21188606321811676 -0.956917703151702881 0.198526471853256226
-1.5532834529876709 2.65044116973876953 5.49699974060058594 0.645928084850311279 -0.246312469244003296 0.722569823265075684
-4.50676918029785156 4.12045955657958984 3.22031831741333008 -0.205638185143470764 -0.767676234245300293 0.606948256492614746
-5.01790571212768555 3.27127361297607422 5.49700021743774414 -0.480082124471664429 -0.659065544605255127 0.578924655914306641
-2.63756847381591797 1.94641649723052979 0.690372109413146973 0.461367756128311157 0.113406568765640259 0.879931092262268066
-0.595229864120483398 4.70133304595947266 5.49700021743774414 0.624068319797515869 -0.348323613405227661 0.699435055255889893
-4.33869457244873047 2.83878111839294434 3.00560379028320312 0.99634242057800293 -0.042475920170545578 -0.0741458237171173096
-0.232455968856811523 5.49700021743774414 2.40210962295532227 0.779308915138244629 0.46991884708404541 -0.414552897214889526
-5.49700021743774414 1.08129560947418213 2.99442934989929199 -0.905592143535614014 -0.28286510705947876 0.316054165363311768
-5.47056484222412109 2.73566842079162598 0.00300000002607703209 0.0271151699125766754 0.262250393629074097 -0.964618861675262451
-3.84046196937561035 3.81563568115234375 5.49700021743774414 0.545297384262084961 0.524150669574737549 0.654153525829315186
-4.32629299163818359 4.16941213607788086 3.30299210548400879 0.464272171258926392 -0.534972250461578369 -0.705872535705566406
-0.799058675765991211 5.49700021743774414 0.142829418182373047 -0.490443974733352661 0.856797635555267334 0.159256204962730408
-1.42601406574249268 5.49699974060058594 1.78864383697509766 0.149759396910667419 0.987832784652709961 0.0419341139495372772
-4.06801843643188477 2.99239492416381836 3.30299258232116699 -0.30616837739944458 0.0889225304126739502 -0.947815179824829102
-5.43003368377685547 5.49700021743774414 3.83519268035888672 0.238853409886360168 0.840734124183654785 -0.485916852951049805
-0.00300000002607703209 3.98273754119873047 2.14280343055725098 0.80001068115234375 -0.2691078782081604 -0.536249756813049316
-4.03315496444702148 -0.202032119035720825 0.748325169086456299 0.43863251805305481 -0.579228997230529785 -0.687091946601867676
-0.00299952318891882896 4.70218896865844727 1.39823031425476074 0.978805303573608398 -0.192703291773796082 -0.0693229809403419495
-3.85480046272277832 4.45063304901123047 0.00300000002607703209 0.46018141508102417 0.138449966907501221 -0.876963317394256592
-0.651419639587402344 5.49700021743774414 3.24868869781494141 0.784480690956115723 0.568186640739440918 -0.248503714799880981
-5.49699974060058594 4.12702846527099609 1.7821509838104248 -0.917168200016021729 -0.350868791341781616 0.18892747163772583
-1.92165958881378174 1.33921504020690918 2.96656560897827148 0.130737796425819397 0.153679326176643372 -0.979433655738830566
-4.05205059051513672 3.20647621154785156 3.30299234390258789 0.818958282470703125 -0.341158151626586914 -0.461430907249450684
-4.26767396926879883 2.60983681678771973 2.95371341705322266 0.85234224796295166 -0.409423559904098511 0.325399875640869141
-5.41144132614135742 1.31146430969238281 5.49700021743774414 0.136124134063720703 -0.307162433862686157 0.941871225833892822
-0.748338699340820312 -0.63485264778137207 5.49700021743774414 0.935525000095367432 -0.0385097712278366089 0.35115516185760498
-2.15941858291625977 5.49700021743774414 4.07820034027099609 0.330672889947891235 0.86206209659576416 0.384063094854354858
-1.82013392448425293 1.66278696060180664 3.05495858192443848 0.0404291450977325439 -0.0283994283527135849 -0.998778700828552246
-3.00301718711853027 5.49700021743774414 3.61354899406433105 0.000348878238582983613 0.977661430835723877 0.210185542702674866
-3.31257748603820801 2.75706195831298828 0.20586395263671875 0.487100780010223389 0.562194943428039551 -0.668333470821380615
-4.74357080459594727 5.49700021743774414 2.0616002082824707 0.277181923389434814 0.615338325500488281 -0.737922012805938721
-2.24308872222900391 3.33542704582214355 5.49700021743774414 0.76252901554107666 0.0160964727401733398 0.646753787994384766
-1.36219072341918945 2.40851092338562012 1.38554060459136963 0.07317332923412323 -0.883974015712738037 -0.46177440881729126
-4.51171016693115234 5.49700021743774414 0.28284764289855957 0.283660084009170532 0.958922147750854492 0.00229795021004974842
-2.56849884986877441 5.49700021743774414 5.19600820541381836 0.420333385467529297 0.816077947616577148 0.396656453609466553
-5.49700021743774414 2.47308969497680664 1.41002082824707031 -0.460441559553146362 0.641559123992919922 0.613510787487030029
-5.32593631744384766 3.51896905899047852 5.49700021743774414 0.715658009052276611 -0.25409996509552002 0.650589644908905029
-4.94030380249023438 4.85680389404296875 0.00299952318891882896 0.111449196934700012 -0.0715165659785270691 -0.991193473339080811
-2.55713987350463867 4.88815450668334961 5.49699974060058594 0.0836082547903060913 -0.167203709483146667 0.982370913028717041
-0.0361444950103759766 -0.0939040184020996094 0.00300000002607703209 0.2295399010181427 -0.835109949111938477 -0.499902814626693726
-1.36730694770812988 3.64253711700439453 5.49700021743774414 0.399819791316986084 -0.597693502902984619 0.694914817810058594
-0.00299976160749793053 4.74792766571044922 3.5739748477935791 0.855028271675109863 -0.40210568904876709 0.32747158408164978
-5.49700021743774414 0.776369094848632812 0.0448088645935058594 -0.744132637977600098 0.611068964004516602 0.269928514957427979
-0.00300047686323523521 4.38738870620727539 3.0341792106628418 0.935650229454040527 -0.155932813882827759 -0.316612750291824341
-5.49700021743774414 4.73994159698486328 2.03402900695800781 -0.777952492237091064 -0.237517103552818298 -0.581700623035430908
-3.31479334831237793 5.17268180847167969 5.49700021743774414 -0.426425844430923462 0.225902765989303589 0.875858962535858154
-1.71541404724121094 5.49700021743774414 0.125597953796386719 -0.17805047333240509 0.919387996196746826 0.350747406482696533
-0.00300000002607703209 2.83834099769592285 3.72327733039855957 0.880043923854827881 0.356674760580062866 0.31353759765625
-0.00300047686323523521 1.94745969772338867 4.93112468719482422 0.892554819583892822 -0.225393608212471008 0.390568315982818604
-5.24881172180175781 3.24137377738952637 5.49700021743774414 0.258306294679641724 -0.609338760375976562 0.749656021595001221
-3.84609365463256836 3.84434270858764648 5.49700021743774414 -0.0521982312202453613 0.37178000807762146 0.926852166652679443
-4.08973598480224609 4.04840230941772461 3.98380160331726074 0.366043299436569214 -0.926595211029052734 0.0862182900309562683
-0.00300047686323523521 3.57943201065063477 0.605115652084350586 0.602221250534057617 -0.502335906028747559 -0.620474159717559814
-5.23309421539306641 3.34708118438720703 5.49700021743774414 0.215663805603981018 -0.895386457443237305 0.389579594135284424
-2.30654644966125488 2.49409151077270508 5.49700021743774414 0.801779389381408691 0.189604490995407104 0.56674504280090332
-4.29327630996704102 2.6923677921295166 1.0905076265335083 0.577735066413879395 0.185846045613288879 -0.794785141944885254
-5.49700069427490234 3.16764259338378906 3.55754351615905762 -0.795008301734924316 0.476824134588241577 0.374967455863952637
-0.943622052669525146 2.28360271453857422 0.0988965034484863281 -0.889385819435119629 -0.431795507669448853 0.150151461362838745
-5.0691075325012207 1.34174644947052002 5.49700021743774414 0.291027814149856567 -0.76258319616317749 0.577728092670440674
-3.074249267578125 3.07000088691711426 3.30299258232116699 0.590459823608398438 -0.0472110509872436523 -0.805685102939605713
-3.21180343627929688 4.52216958999633789 1.78268814086914062 0.0693178027868270874 -0.993683338165283203 0.0882522165775299072
-2.82669925689697266 3.55394768714904785 0.791152715682983398 -0.705483973026275635 -0.34810107946395874 0.617347538471221924
-4.74761962890625 5.49700021743774414 3.81479549407958984 -0.535500645637512207 0.811962783336639404 -0.232283324003219604
-4.81634283065795898 2.24643659591674805 0.00300000002607703209 0.355128288269042969 -0.29616054892539978 -0.886663854122161865
-0.949080944061279297 5.49700021743774414 0.107563495635986328 0.417165547609329224 0.90048980712890625 0.122845515608787537
-0.737631082534790039 3.62454915046691895 0.00300000002607703209 0.646711170673370361 -0.398660928010940552 -0.650256991386413574
-5.49700021743774414 -0.3793792724609375 0.0445656776428222656 -0.741359531879425049 -0.450848817825317383 0.497113019227981567
-0.391987800598144531 -0.891153573989868164 5.49700069427490234 0.780088841915130615 -0.0735541656613349915 0.621330201625823975
-4.2319483757019043 2.49466991424560547 0.583177447319030762 0.32347068190574646 -0.0769828185439109802 -0.943101465702056885
-2.11074042320251465 1.83249795436859131 2.9773402214050293 0.391825973987579346 -0.154595658183097839 -0.906957864761352539
-2.74635791778564453 2.30854058265686035 5.49700021743774414 0.554726660251617432 -0.486560285091400146 0.674935102462768555
-4.23659896850585938 2.50966191291809082 0.405390024185180664 0.648651838302612305 0.749100148677825928 -0.13453519344329834
-4.36432123184204102 2.92139077186584473 3.14875030517578125 0.770424783229827881 -0.389566183090209961 -0.504662096500396729
-0.938329875469207764 2.28202342987060547 0.0857279300689697266 -0.158064320683479309 -0.987072587013244629 0.0265216715633869171
-4.09816932678222656 3.63120508193969727 3.30299258232116699 0.528121829032897949 -0.453835964202880859 -0.717718780040740967
-0.00300000002607703209 4.81826496124267578 4.17455339431762695 0.919475793838500977 0.3930988609790802 -0.00611424446105957031
-4.85821771621704102 3.88306188583374023 5.49700069427490234 -0.582690060138702393 -0.576271355152130127 0.573047637939453125
-0.603446483612060547 5.00226116180419922 5.49700021743774414 0.0316014103591442108 -0.410444319248199463 0.911337912082672119
-0.00300023844465613365 2.94257736206054688 2.0641477108001709 0.725142538547515869 -0.518857777118682861 -0.452719449996948242
-2.71699905395507812 2.94181561470031738 0.690743207931518555 0.442187696695327759 0.57419276237487793 0.689037501811981201
-4.55759143829345703 4.32786083221435547 5.49700021743774414 0.72135162353515625 0.0488805212080478668 0.690841853618621826
-2.05029392242431641 1.38257730007171631 2.95810341835021973 0.271172046661376953 0.199199557304382324 -0.941692829132080078
-4.0793299674987793 3.60271906852722168 4.43556976318359375 0.810334384441375732 0.356813549995422363 -0.464803487062454224
-5.11642217636108398 5.49700021743774414 4.29953289031982422 0.225384980440139771 0.920150101184844971 -0.320195823907852173
-2.71245622634887695 3.18567061424255371 2.19847321510314941 -0.153884470462799072 -0.768084406852722168 -0.621583402156829834
-3.87829971313476562 4.97496700286865234 5.49700021743774414 0.594940781593322754 -0.674600660800933838 0.436988979578018188
-0.00299952318891882896 4.67902612686157227 4.36198806762695312 0.918368637561798096 -0.208507314324378967 0.33633875846862793
-0.00299976160749793053 5.45363235473632812 2.25542354583740234 0.931023299694061279 -0.0164487510919570923 -0.364588916301727295
-0.00300000002607703209 3.60028076171875 3.97868943214416504 0.976042032241821289 0.101551085710525513 0.192430004477500916
-5.49700021743774414 4.33326005935668945 5.14705371856689453 -0.450256079435348511 -0.674414932727813721 0.585178554058074951
-5.49700021743774414 3.85873270034790039 4.92951345443725586 -0.88292694091796875 0.313538104295730591 0.34947657585144043
-5.49700021743774414 1.70204377174377441 2.88591194152832031 -0.687562465667724609 -0.549389958381652832 -0.474792838096618652
-4.58317041397094727 3.62687993049621582 2.15096426010131836 0.543802857398986816 0.749219119548797607 -0.378086209297180176
-3.34745121002197266 2.74624347686767578 0.198479533195495605 0.410522520542144775 0.715441286563873291 0.565345048904418945
-5.03182840347290039 -0.357336759567260742 5.49700021743774414 -0.281266182661056519 -0.768724441528320312 0.574414491653442383
-4.64678287506103516 1.2411046028137207 5.49700021743774414 -0.566453337669372559 -0.742398321628570557 0.357736378908157349
-5.40172576904296875 -0.966875791549682617 5.49700021743774414 0.0380852669477462769 -0.256837666034698486 0.965703845024108887
-1.19724845886230469 1.57539629936218262 5.49700021743774414 0.499986827373504639 -0.689858853816986084 0.523553192615509033
-5.01089954376220703 3.30130195617675781 5.49700021743774414 0.89177548885345459 0.235038608312606812 0.386643677949905396
-3.31523466110229492 1.46818852424621582 5.49700021743774414 0.178618818521499634 -0.824343860149383545 0.537170648574829102
-2.89102697372436523 1.51040506362915039 5.49700021743774414 0.34402504563331604 -0.743831276893615723 0.573028743267059326
-5.49700021743774414 5.28731918334960938 1.36937284469604492 -0.843095541000366211 -0.125325828790664673 -0.522956311702728271
-2.20016384124755859 1.42457354068756104 2.90282249450683594 0.423390358686447144 0.0362409204244613647 -0.905222177505493164
-3.75993824005126953 3.35464239120483398 5.49700021743774414 0.0265540480613708496 -0.0664228200912475586 0.99743807315826416
-2.86848163604736328 1.17262387275695801 0.121276378631591797 0.902082204818725586 -0.376961290836334229 0.210113897919654846
-5.49700021743774414 4.561126708984375 4.46454620361328125 -0.963368892669677734 -0.263311475515365601 0.0508673563599586487
-5.49699974060058594 2.58234477043151855 4.7705230712890625 -0.470195859670639038 0.331190258264541626 0.818064093589782715
-2.13066864013671875 5.4596409797668457 0.00300000002607703209 0.659197449684143066 -0.033264458179473877 -0.751233816146850586
-2.08156037330627441 1.5007469654083252 2.99010586738586426 0.359101563692092896 0.00434044003486633301 -0.933288455009460449
-4.42052793502807617 -0.854675531387329102 5.49700021743774414 0.758863091468811035 -0.180729538202285767 0.625670552253723145
-3.29185628890991211 1.13130521774291992 5.49700021743774414 0.0967327132821083069 -0.867169976234436035 0.488527476787567139
-2.20529770851135254 2.10922431945800781 5.49700021743774414 0.620454668998718262 -0.54433596134185791 0.564565598964691162
-0.00300000002607703209 4.45022249221801758 3.87265324592590332 0.445766806602478027 -0.868351459503173828 0.217388302087783813
-3.59958195686340332 3.41603875160217285 3.3828892707824707 -0.744381546974182129 -0.0782126709818840027 0.663158297538757324
-4.6762547492980957 4.86075210571289062 5.49700021743774414 0.34915393590927124 -0.498673558235168457 0.793357551097869873
-2.10193371772766113 -0.612607002258300781 5.49700021743774414 0.651120364665985107 -0.319947004318237305 0.688241362571716309
-0.00300000002607703209 3.57555103302001953 2.53412246704101562 0.728940665721893311 -0.520210206508636475 0.445002138614654541
-5.43120622634887695 5.49700021743774414 5.35403919219970703 0.209794089198112488 0.967870056629180908 0.138614490628242493
-5.49700021743774414 4.26181411743164062 3.68187069892883301 -0.861786842346191406 -0.41905936598777771 -0.2858542799949646
-5.49700021743774414 1.13401675224304199 0.76147150993347168 -0.827534675598144531 0.141428515315055847 0.543308675289154053
-5.44658470153808594 0.497283697128295898 5.49700021743774414 0.114217676222324371 0.226883277297019958 0.967201292514801025
-0.764537334442138672 -0.377286195755004883 5.49699926376342773 0.630917787551879883 -0.185093268752098083 0.753447592258453369
-0.00300047686323523521 -0.583392143249511719 5.12134647369384766 0.915871560573577881 -0.107881255447864532 0.386705189943313599
-4.28410434722900391 1.96053981781005859 0.00300000002607703209 -0.800970911979675293 -0.279103964567184448 -0.529666483402252197
-3.35929083824157715 3.17594003677368164 5.49700021743774414 0.212998688220977783 -0.122270733118057251 0.969371378421783447
-4.51971578598022461 -0.196524754166603088 0.825918436050415039 -0.480563223361968994 -0.7192344069480896 0.50175774097442627
-3.67288780212402344 0.600789666175842285 0.771545648574829102 0.357510089874267578 0.9235648512840271 0.138616487383842468
-4.4792943000793457 3.78894495964050293 5.49700021743774414 0.428360551595687866 -0.167770296335220337 0.887896597385406494
-2.70605564117431641 4.09197998046875 0.00300023844465613365 -0.267491847276687622 -0.465965688228607178 -0.843400299549102783
-0.00300000002607703209 4.59011268615722656 3.45310068130493164 0.576245725154876709 -0.742087244987487793 -0.342413961887359619
-0.993174076080322266 4.76753520965576172 5.49700021743774414 -0.203616619110107422 -0.859101355075836182 0.469558447599411011
-1.85944175720214844 1.34009790420532227 2.97208857536315918 0.155221655964851379 0.0971787124872207642 -0.983088314533233643
-3.54284453392028809 0.256135225296020508 5.49700021743774414 0.859362185001373291 -0.162978887557983398 0.484700381755828857
-4.9613032341003418 1.30373954772949219 0.00300000002607703209 0.115726344287395477 -0.140581473708152771 -0.983282387256622314
-5.49700021743774414 4.26574325561523438 3.62997579574584961 -0.930509090423583984 -0.286760956048965454 0.227861836552619934
-5.34633684158325195 2.84494996070861816 5.49700021743774414 0.168278887867927551 -0.0278164520859718323 0.985346853733062744
-4.30051326751708984 5.49700021743774414 1.24803757667541504 0.251887917518615723 0.66825711727142334 -0.699989259243011475
-3.03337907791137695 4.22020673751831055 2.96151638031005859 -0.488156795501708984 -0.864771425724029541 -0.11778528243303299
-0.00299904635176062584 4.99286270141601562 4.19083833694458008 0.991256177425384521 0.0887733548879623413 -0.0976241454482078552
-4.63958644866943359 0.866601943969726562 5.49700021743774414 0.028946954756975174 -0.111898452043533325 0.993297934532165527
-5.49700021743774414 0.00794649124145507812 2.49854803085327148 -0.468779206275939941 -0.785528302192687988 -0.403969526290893555
-0.00300000002607703209 4.69804859161376953 0.182860374450683594 0.550526738166809082 -0.798688590526580811 -0.242933854460716248
-0.00300000002607703209 4.28619575500488281 3.53229451179504395 0.245757415890693665 -0.787701010704040527 -0.564916253089904785
-3.0278785228729248 2.84537792205810547 0.344133853912353516 0.207870036363601685 0.5551719069480896 0.805341064929962158
