ply
format ascii 1.0
element vertex 375
property float x
property float y
property float z
property float nx
property float ny
property float nz
end_header
-1.19761919975280762 5.49970006942749023 1.94872832298278809 0.57673799991607666 0.773006141185760498 -0.264262795448303223
-1.19830024242401123 5.49970006942749023 1.9488072395324707 0.207991674542427063 0.908886075019836426 -0.36147695779800415
-1.74709928035736084 1.4951941967010498 3.02286243438720703 -0.0478014908730983734 0.133478790521621704 -0.989898264408111572
-4.22287511825561523 2.47871923446655273 3.3002924919128418 -0.606588184833526611 -0.739649951457977295 -0.291494041681289673
-4.22235202789306641 2.4794471263885498 3.3002924919128418 -0.316466629505157471 -0.103551767766475677 -0.942934691905975342
-0.000300000014249235392 3.61046695709228516 0.63574528694152832 0.908783555030822754 0.0508043952286243439 -0.414163410663604736
-0.000300000014249235392 2.74396109580993652 1.17038583755493164 0.913620471954345703 0.00542610697448253632 -0.406531840562820435
-5.496826171875 5.49970006942749023 5.36550712585449219 -0.350941300392150879 0.936340093612670898 -0.0103548932820558548
-0.000300000014249235392 2.66415596008300781 4.92906951904296875 0.99201500415802002 0.0808225199580192566 -0.0968184694647789001
-2.40584707260131836 5.49970006942749023 2.25155806541442871 0.482649773359298706 0.767011761665344238 -0.422779053449630737
-2.40652060508728027 5.49970006942749023 2.25196146965026855 0.107383213937282562 0.940766572952270508 -0.321600735187530518
-3.03555750846862793 5.49970006942749023 5.20174789428710938 0.272304952144622803 0.961804986000061035 -0.0279512964189052582
-3.03563356399536133 5.49970006942749023 5.20174503326416016 0.0294837635010480881 0.998792767524719238 -0.039289768785238266
-0.778954267501831055 5.49970006942749023 4.08969593048095703 0.301981508731842041 0.935712635517120361 -0.182342976331710815
-5.49970006942749023 1.44486498832702637 2.7371518611907959 -0.929916977882385254 -0.214114934206008911 -0.29901355504989624
-5.49970006942749023 1.63059091567993164 4.28174400329589844 -0.984842836856842041 -0.028192427009344101 -0.171142458915710449
-1.34687173366546631 5.49970006942749023 2.38476276397705078 0.672701478004455566 0.248881563544273376 -0.696800291538238525
-1.34761106967926025 5.49970006942749023 2.38549542427062988 0.219131752848625183 0.918712973594665527 -0.328553944826126099
-5.49970006942749023 1.35576927661895752 4.90529346466064453 -0.992513775825500488 -0.0765437334775924683 -0.0951698571443557739
-4.10215473175048828 5.49970006942749023 4.70185565948486328 -0.108484864234924316 0.985447525978088379 -0.130859002470970154
-4.37876605987548828 5.49970006942749023 5.39814853668212891 -0.263361036777496338 0.964657187461853027 -0.00879821740090847015
-3.74141836166381836 2.73925995826721191 3.3002924919128418 -0.14255717396736145 0.0990603342652320862 -0.984817028045654297
-5.49970006942749023 4.01321315765380859 4.97965812683105469 -0.966603875160217285 0.24894481897354126 -0.0608547255396842957
-0.922262430191040039 -0.713696479797363281 0.000300000014249235392 0.141416460275650024 -0.230210795998573303 -0.962810635566711426
-1.86890113353729248 5.49970006942749023 3.29881858825683594 0.204370364546775818 0.943727612495422363 -0.260021179914474487
-0.000300000014249235392 1.26833903789520264 4.07813549041748047 0.938620686531066895 -0.258981674909591675 -0.227858841419219971
-0.000300000014249235392 4.32229328155517578 2.61953115463256836 0.929201245307922363 0.253351598978042603 -0.269068390130996704
-5.49970006942749023 4.03224086761474609 3.63737058639526367 -0.95242607593536377 0.206369295716285706 -0.224268272519111633
-5.49970006942749023 4.02029848098754883 4.89977693557739258 -0.943458080291748047 0.316374331712722778 -0.0989647284150123596
-0.000300000014249235392 2.50174927711486816 0.905649900436401367 0.909968018531799316 -0.0200066734105348587 -0.414195448160171509
-0.000300000014249235392 1.48449361324310303 2.29346561431884766 0.931586742401123047 -0.138458698987960815 -0.336117982864379883
-5.49970006942749023 1.71991920471191406 3.39466190338134766 -0.947318077087402344 -0.0597460269927978516 -0.314672559499740601
-4.52068042755126953 5.49970006942749023 4.76320648193359375 -0.331534892320632935 0.939384579658508301 -0.0874137431383132935
-0.000300000014249235392 0.939082503318786621 1.64487874507904053 0.921938896179199219 -0.105807721614837646 -0.372603327035903931
-4.19139957427978516 5.49970006942749023 2.83218789100646973 -0.105248004198074341 0.937917828559875488 -0.330504000186920166
-2.53429698944091797 3.0265953540802002 0.000300000014249235392 0.0719549581408500671 0.602718889713287354 -0.794702768325805664
-2.53425431251525879 3.02644181251525879 0.000300000014249235392 0.220386162400245667 0.233157053589820862 -0.947136640548706055
-4.09422874450683594 -0.619684696197509766 0.000300000014249235392 -0.0969419926404953003 -0.272971957921981812 -0.957125067710876465
-0.000300000014249235392 -0.664306640625 4.83427953720092773 0.94750523567199707 -0.311063826084136963 -0.0739799067378044128
-4.86366081237792969 5.49970006942749023 5.18393707275390625 -0.291406542062759399 0.955985009670257568 -0.0342748165130615234
-5.49970006942749023 1.49528968334197998 3.17485332489013672 -0.94800114631652832 -0.128702118992805481 -0.291083186864852905
-3.39390683174133301 -0.26703190803527832 0.000300000014249235392 -0.0232470817863941193 -0.182127803564071655 -0.982999980449676514
-1.81231796741485596 4.7543940544128418 0.000300000014249235392 0.175537422299385071 -0.166967570781707764 -0.970210492610931396
-1.81241202354431152 4.75446891784667969 0.000300000014249235392 -0.130958616733551025 0.0779585763812065125 -0.988317906856536865
-0.000300000014249235392 -0.803359508514404297 1.91913712024688721 0.908362746238708496 -0.296382874250411987 -0.295015811920166016
-5.49970006942749023 4.05465221405029297 3.5759429931640625 -0.935518980026245117 0.272948503494262695 -0.224284037947654724
-5.49970006942749023 2.63891077041625977 3.03296089172363281 -0.92748337984085083 0.053212437778711319 -0.370057910680770874
-0.809408307075500488 5.49970006942749023 5.02551078796386719 0.26090472936630249 0.904649496078491211 -0.336953967809677124
-0.809505581855773926 5.49970006942749023 5.02575397491455078 0.17632746696472168 0.981627225875854492 -0.0729145705699920654
-4.67836570739746094 1.79083561897277832 0.000300000014249235392 -0.484640210866928101 0.529023110866546631 -0.69660484790802002
-4.67831230163574219 1.79059958457946777 0.000300000014249235392 -0.459359079599380493 -0.0245945882052183151 -0.887910068035125732
-4.6780247688293457 1.79060459136962891 0.000300000014249235392 -0.179733902215957642 -0.0234289225190877914 -0.983436226844787598
-4.42580318450927734 5.49970006942749023 3.95570683479309082 0.304867982864379883 0.927248716354370117 -0.217405706644058228
-4.42641019821166992 5.49970006942749023 3.95572018623352051 -0.691775083541870117 0.701001882553100586 -0.173330724239349365
-4.42615032196044922 5.49970006942749023 3.95573091506958008 -0.117396488785743713 0.971539199352264404 -0.205741524696350098
-1.63245964050292969 5.49970006942749023 3.00821900367736816 0.0805941298604011536 0.964048206806182861 -0.253210455179214478
-2.5110926628112793 5.49970006942749023 4.48180675506591797 -0.0372887998819351196 0.990488529205322266 -0.132446050643920898
-0.000300000014249235392 2.89152836799621582 2.00727605819702148 0.932929515838623047 -0.0294495914131402969 -0.358852565288543701
-0.474035739898681641 5.49970006942749023 1.49013817310333252 0.153656750917434692 0.916107892990112305 -0.37031853199005127
-5.49970006942749023 3.04183530807495117 0.500238418579101562 -0.898649334907531738 0.11481359601020813 -0.423375874757766724
-4.00151157379150391 5.49970006942749023 4.33123397827148438 -0.154319822788238525 0.971572637557983398 -0.17953258752822876
-2.44320344924926758 1.891143798828125 2.61168456077575684 0.788818538188934326 -0.37764507532119751 -0.484922111034393311
-0.000300000014249235392 4.84729814529418945 4.54220962524414062 0.930046916007995605 0.350124776363372803 -0.111468672752380371
-5.49970006942749023 1.26722979545593262 4.60971260070800781 -0.988674044609069824 -0.103838764131069183 -0.108356066048145294
-0.000300000014249235392 2.68744444847106934 4.34713554382324219 0.98449784517288208 0.0781690850853919983 -0.157014578580856323
-4.19513416290283203 1.77814602851867676 0.000300000014249235392 -0.265562325716018677 -0.699656903743743896 -0.663292407989501953
-4.19491338729858398 1.77833831310272217 0.000300000014249235392 0.296305835247039795 -0.365212321281433105 -0.882509350776672363
-1.25175118446350098 3.21201896667480469 0.000300000014249235392 0.740104734897613525 0.370385706424713135 -0.561301648616790771
-1.2519986629486084 3.21194195747375488 0.000300000014249235392 0.416304588317871094 0.339854985475540161 -0.843320250511169434
-1.25227463245391846 3.21128416061401367 0.000300000014249235392 0.200287416577339172 -0.711484074592590332 -0.67355424165725708
-1.25231504440307617 3.21161127090454102 0.000300000014249235392 0.160214945673942566 0.0348137989640235901 -0.986467957496643066
-0.000300000014249235392 -0.770687341690063477 3.48506736755371094 0.90968620777130127 -0.376560211181640625 -0.175138264894485474
-5.49970006942749023 0.963234424591064453 2.51261210441589355 -0.948202848434448242 -0.105098046362400055 -0.299775987863540649
-0.11484837532043457 5.49970006942749023 4.76296234130859375 0.241970941424369812 0.780503273010253906 0.576424002647399902
-0.114826202392578125 5.49970006942749023 4.76270866394042969 0.356461495161056519 0.92890322208404541 -0.10036873072385788
-5.49970006942749023 3.32744932174682617 4.26881504058837891 -0.949126362800598145 0.254039555788040161 -0.186072677373886108
-5.49970006942749023 1.29686105251312256 4.3202056884765625 -0.944507002830505371 -0.290082782506942749 -0.154137462377548218
-1.93505537509918213 5.49970006942749023 4.44127464294433594 0.91068112850189209 0.322923988103866577 0.257643193006515503
-1.9358069896697998 5.49970006942749023 4.44110393524169922 0.292385786771774292 0.932307958602905273 0.21286696195602417
-1.93592631816864014 5.49970006942749023 4.44081735610961914 0.162190988659858704 0.976401865482330322 -0.142595171928405762
-4.39502048492431641 5.49970006942749023 4.56606578826904297 -0.214200377464294434 0.97016751766204834 -0.113547377288341522
-0.000300000014249235392 2.47771215438842773 4.36732387542724609 0.990342974662780762 0.014647994190454483 -0.137863054871559143
-0.000300000014249235392 4.14970302581787109 2.75347638130187988 0.936433851718902588 0.176192820072174072 -0.303393512964248657
-2.27558422088623047 5.49970006942749023 4.05040311813354492 0.182203188538551331 0.962405622005462646 -0.201438114047050476
-0.000300000014249235392 2.75122547149658203 4.88489437103271484 0.987588405609130859 0.0893398821353912354 -0.1291799396276474
-3.80988454818725586 0.852306246757507324 5.49970006942749023 0.453130662441253662 -0.752984046936035156 0.477166473865509033
-3.81017804145812988 0.852551937103271484 5.49970006942749023 -0.0233715549111366272 -0.604048728942871094 0.796604633331298828
-0.889324426651000977 5.49970006942749023 5.27728509902954102 0.178884372115135193 0.983599305152893066 -0.0230776835232973099
-3.89644002914428711 2.20510482788085938 5.49970006942749023 -0.0552664771676063538 -0.642569780349731445 0.764231085777282715
-3.89643406867980957 2.20519495010375977 5.49970006942749023 -0.0462469533085823059 -0.475243866443634033 0.87863767147064209
-5.49970006942749023 3.52660846710205078 4.69015359878540039 -0.957571744918823242 0.265997827053070068 -0.110911563038825989
-0.000300000014249235392 3.14485669136047363 2.70746421813964844 0.955942451953887939 0.0438330993056297302 -0.290263146162033081
-5.34990310668945312 0.332761287689208984 0.000300000014249235392 0.445924639701843262 -0.228911012411117554 -0.865303993225097656
-5.3500518798828125 0.332764148712158203 0.000300000014249235392 0.0179169755429029465 -0.24700559675693512 -0.968848347663879395
-5.35026741027832031 0.332784652709960938 0.000300000014249235392 -0.306159287691116333 -0.347718089818954468 -0.88620460033416748
-5.35022830963134766 0.332866907119750977 0.000300000014249235392 -0.210848122835159302 -0.11531347781419754 -0.970693469047546387
-4.73703193664550781 5.49970006942749023 4.47808027267456055 -0.279979974031448364 0.953975439071655273 -0.107433788478374481
-0.000300000014249235392 3.17444157600402832 1.99715518951416016 0.921700716018676758 -0.0219051502645015717 -0.387282639741897583
-2.90306568145751953 2.07817435264587402 5.49970006942749023 0.272054821252822876 -0.432597547769546509 0.85956120491027832
-0.000300000014249235392 1.64026808738708496 3.42249631881713867 0.946817934513092041 -0.0681227743625640869 -0.314475804567337036
-0.000300000014249235392 3.19933009147644043 3.5339972972869873 0.964717507362365723 -0.00596882682293653488 -0.263219326734542847
-3.74076700210571289 5.49970006942749023 2.60078048706054688 -0.0982620641589164734 0.949330389499664307 -0.298523575067520142
-3.84798431396484375 2.00412416458129883 0.000300000014249235392 0.0661915689706802368 -0.386553019285202026 -0.919888913631439209
-3.84798479080200195 2.00422239303588867 0.000300000014249235392 0.0694740042090415955 -0.09272003173828125 -0.993265509605407715
-3.34241318702697754 3.020050048828125 3.3002924919128418 0.152323126792907715 -0.039374176412820816 -0.987546145915985107
-3.34243440628051758 3.02017641067504883 3.3002924919128418 0.0777056589722633362 0.355183988809585571 -0.931561112403869629
-0.398299217224121094 5.49970006942749023 1.75716865062713623 0.133244901895523071 0.711181521415710449 -0.69026559591293335
-0.398303031921386719 5.49970006942749023 1.7573552131652832 0.163134202361106873 0.931681394577026367 -0.324587404727935791
-0.000300000014249235392 4.27795553207397461 3.52777266502380371 0.956761658191680908 0.120283469557762146 -0.264837712049484253
-2.8440248966217041 5.49970006942749023 5.31068134307861328 0.0622149817645549774 0.906766533851623535 0.417017668485641479
-2.84402847290039062 5.49970006942749023 5.31053352355957031 0.0567015931010246277 0.997920751571655273 -0.0306437406688928604
-5.49970006942749023 4.02467441558837891 4.95317935943603516 -0.971624255180358887 0.209337934851646423 -0.110108956694602966
-0.000300000014249235392 1.08976531028747559 4.36461687088012695 0.952364206314086914 -0.231881275773048401 -0.198074385523796082
-2.80053091049194336 5.49970006942749023 3.62830972671508789 -0.0503066405653953552 0.948228657245635986 -0.313578784465789795
-1.77244186401367188 -0.930280208587646484 0.000300000014249235392 0.0657070130109786987 -0.224591195583343506 -0.972235202789306641
-0.000300000014249235392 0.815943717956542969 4.23749637603759766 0.947526335716247559 -0.269252300262451172 -0.172328129410743713
-5.49970006942749023 3.03543663024902344 4.32223749160766602 -0.976064205169677734 0.114413060247898102 -0.18495449423789978
-1.51784431934356689 2.72289681434631348 0.000300000014249235392 0.528181970119476318 -0.020537741482257843 -0.848882794380187988
-1.5179823637008667 2.72291159629821777 0.000300000014249235392 0.15974271297454834 0.0254434533417224884 -0.986830711364746094
-5.49970006942749023 3.93488454818725586 2.94562911987304688 -0.919056415557861328 0.223994255065917969 -0.32428663969039917
-2.4716646671295166 0.710779905319213867 0.000300000014249235392 0.0309749767184257507 -0.0830468088388442993 -0.996064126491546631
-5.49970006942749023 4.61134624481201172 4.41099691390991211 -0.950061500072479248 0.275748223066329956 -0.146102726459503174
-0.000300000014249235392 3.46037054061889648 3.02817296981811523 0.92248380184173584 0.182296514511108398 -0.340281635522842407
-1.10658252239227295 1.14034581184387207 5.49970006942749023 0.494593173265457153 -0.413196593523025513 0.764621496200561523
-0.000300000014249235392 1.45431828498840332 2.33570575714111328 0.924268364906311035 -0.0485202185809612274 -0.378647267818450928
-1.27260363101959229 5.49970006942749023 5.234039306640625 0.281818419694900513 0.604427099227905273 0.745148360729217529
-1.27268385887145996 5.49970006942749023 5.23365592956542969 0.194644033908843994 0.97985684871673584 -0.0446561314165592194
-0.000300000014249235392 -0.451806783676147461 2.43967485427856445 0.933969378471374512 -0.248674571514129639 -0.256636083126068115
-5.19469404220581055 5.49970006942749023 3.55963540077209473 -0.219770148396492004 0.427847445011138916 -0.876725494861602783
-5.19466304779052734 5.49970006942749023 3.56017017364501953 -0.368727535009384155 0.898244500160217285 -0.239158332347869873
-0.000300000014249235392 5.18850898742675781 5.13180732727050781 0.920075178146362305 0.389498531818389893 -0.0418611802160739899
-4.26734256744384766 5.49970006942749023 4.81226253509521484 -0.181534856557846069 0.964639902114868164 0.191088616847991943
-3.13703680038452148 1.41942071914672852 0.000300000014249235392 0.0240897275507450104 -0.120429933071136475 -0.992429435253143311
-0.000300000014249235392 3.88167476654052734 1.91104519367218018 0.929738819599151611 0.116866767406463623 -0.349181652069091797
-0.000300000014249235392 2.2093815803527832 3.47940707206726074 0.951238334178924561 -0.119029931724071503 -0.284565538167953491
-5.49970006942749023 1.91381335258483887 1.34696376323699951 -0.912609100341796875 -0.115626968443393707 -0.392141610383987427
-0.000300000014249235392 3.91923141479492188 5.25425338745117188 0.964841306209564209 0.260628759860992432 -0.0339685678482055664
-5.49970006942749023 3.00721883773803711 2.89314866065979004 -0.95675426721572876 0.0463458150625228882 -0.287181466817855835
-5.49970006942749023 1.61504256725311279 5.35290336608886719 -0.982862353324890137 -0.18363615870475769 -0.0160988792777061462
-0.000300000014249235392 2.68773388862609863 5.2538299560546875 0.987072587013244629 0.154789894819259644 -0.0415660254657268524
-0.644546747207641602 5.49970006942749023 4.56000804901123047 0.868081510066986084 0.364850103855133057 -0.336628586053848267
-0.645151615142822266 5.49970006942749023 4.56024551391601562 0.338413327932357788 0.933142900466918945 -0.121329113841056824
-4.75132989883422852 -0.0184648036956787109 0.000300000014249235392 -0.506176352500915527 -0.732321381568908691 -0.455511718988418579
-4.75123977661132812 -0.0180208683013916016 0.000300000014249235392 -0.626937031745910645 -0.0987703949213027954 -0.772783517837524414
-5.49970006942749023 3.05569601058959961 5.27475833892822266 -0.981090664863586426 0.189237684011459351 -0.0406209640204906464
-2.86425352096557617 3.50062179565429688 3.3002922534942627 0.019102269783616066 0.0830930992960929871 -0.996358692646026611
-0.000300000014249235392 5.12906837463378906 2.08682584762573242 0.906456589698791504 0.29874005913734436 -0.298480719327926636
-3.36296534538269043 5.49970006942749023 4.16640329360961914 -0.624449491500854492 0.599565207958221436 -0.500584125518798828
-3.36271119117736816 5.49970006942749023 4.16659927368164062 -0.187761589884757996 0.966574370861053467 -0.174583867192268372
-5.49970006942749023 3.07421183586120605 4.27903652191162109 -0.986357569694519043 0.0525690726935863495 -0.155997306108474731
-4.87467718124389648 3.26919984817504883 5.49970006942749023 -0.654394567012786865 -0.578312575817108154 0.48715740442276001
-4.87442874908447266 3.26955842971801758 5.49970006942749023 -0.458414644002914429 0.00762257026508450508 0.888705730438232422
-1.97878646850585938 5.49970006942749023 3.59762334823608398 0.772469401359558105 0.634930729866027832 -0.0124077992513775826
-1.97913193702697754 5.49970006942749023 3.59755825996398926 0.0633226186037063599 0.971119940280914307 -0.23003523051738739
-5.4599156379699707 5.49970006942749023 5.39005088806152344 -0.614514291286468506 0.788661062717437744 0.0196440387517213821
-5.45976400375366211 5.49970006942749023 5.39004039764404297 -0.264099270105361938 0.964459061622619629 -0.00838201865553855896
-5.49970006942749023 2.96824073791503906 3.95438981056213379 -0.973870337009429932 0.0901952013373374939 -0.208425775170326233
-0.000300000014249235392 4.02137613296508789 4.93060493469238281 0.981352806091308594 0.179105013608932495 -0.0697710365056991577
-0.000300000014249235392 -0.756829023361206055 2.75158429145812988 0.935886263847351074 -0.262359797954559326 -0.235125720500946045
-5.49970006942749023 1.72462785243988037 1.32683455944061279 -0.91983950138092041 -0.080561615526676178 -0.383933454751968384
-5.49970006942749023 3.566925048828125 4.90504360198974609 -0.96327519416809082 0.240935608744621277 -0.118536219000816345
-0.000300000014249235392 2.54659533500671387 3.20357251167297363 0.888477146625518799 0.362039327621459961 0.282021999359130859
-2.73728132247924805 5.49970006942749023 2.92962551116943359 0.14078792929649353 0.946347296237945557 0.290870398283004761
-2.73729085922241211 5.49970006942749023 2.92956686019897461 0.115492455661296844 0.98714900016784668 0.110445864498615265
-2.73739266395568848 5.49970006942749023 2.92924761772155762 -0.0188731011003255844 0.954782664775848389 -0.296704858541488647
-2.28344440460205078 5.49970006942749023 4.44956684112548828 -0.368941724300384521 0.874907076358795166 -0.313718885183334351
-2.28330516815185547 5.49970006942749023 4.44962549209594727 0.0413561314344406128 0.986054301261901855 -0.16120302677154541
-0.114433765411376953 4.26909065246582031 0.000300000014249235392 0.187427237629890442 0.0654956623911857605 -0.980092525482177734
-1.34731829166412354 5.49970006942749023 5.30936241149902344 0.295148938894271851 0.955114424228668213 -0.0253657903522253036
-1.80497336387634277 5.49970006942749023 0.973343133926391602 -0.64130091667175293 0.520246684551239014 -0.563982784748077393
-1.80459141731262207 5.49970006942749023 0.973538517951965332 0.0377825275063514709 0.917114019393920898 -0.396830439567565918
-3.93407154083251953 5.49970006942749023 4.08118247985839844 -0.514980614185333252 0.75414198637008667 0.407510578632354736
-3.93393707275390625 5.49970006942749023 4.08112812042236328 -0.215536221861839294 0.919131278991699219 0.329760193824768066
-1.45303165912628174 5.49970006942749023 5.09562778472900391 -0.723691821098327637 0.674366354942321777 -0.146629735827445984
-1.45271492004394531 5.49970006942749023 5.09576606750488281 -0.0165114030241966248 0.971376776695251465 0.236969485878944397
-1.45269477367401123 5.49970006942749023 5.09580230712890625 -0.136401236057281494 0.760263204574584961 0.635133504867553711
-1.45259940624237061 5.49970006942749023 5.09553050994873047 0.1369427889585495 0.988085508346557617 -0.0702402293682098389
-5.33569908142089844 5.49970006942749023 3.42262887954711914 -0.341212302446365356 0.726326346397399902 -0.596677541732788086
-0.404494047164916992 5.42289304733276367 0.000300000014249235392 0.0632523372769355774 -0.0269779544323682785 -0.997632861137390137
-2.8707275390625 1.15565633773803711 1.31473493576049805 0.810580849647521973 -0.388933628797531128 -0.437823295593261719
-0.000300000014249235392 3.33693790435791016 4.15792036056518555 0.981664538383483887 0.0971495509147644043 -0.164001956582069397
-5.49970006942749023 4.21373081207275391 5.15941333770751953 -0.975500047206878662 0.213506266474723816 -0.0530539974570274353
-1.09973454475402832 5.49970006942749023 2.46834707260131836 0.948207259178161621 0.278857290744781494 -0.152123391628265381
-1.10067152976989746 5.49970006942749023 2.4684145450592041 0.254518747329711914 0.920943081378936768 -0.295099973678588867
-4.51559829711914062 5.49970006942749023 4.14717340469360352 -0.00963726919144392014 0.738645672798156738 -0.674024999141693115
-4.51568889617919922 5.49970006942749023 4.14739894866943359 -0.296282202005386353 0.943110525608062744 -0.150862157344818115
-0.000300000014249235392 2.17626810073852539 4.03934574127197266 0.961634933948516846 0.0673413202166557312 -0.265938550233840942
-3.72448205947875977 2.77101469039916992 3.3002924919128418 -0.0230717062950134277 -0.565093636512756348 -0.82470405101776123
-3.72452449798583984 2.771270751953125 3.3002924919128418 -0.164982765913009644 0.164749965071678162 -0.972439229488372803
-0.000300000014249235392 3.04136562347412109 3.00185704231262207 0.953127861022949219 0.0168777443468570709 -0.30209648609161377
-1.9068831205368042 1.32884907722473145 2.95943093299865723 0.14328417181968689 0.38201865553855896 -0.912979364395141602
-4.83551311492919922 5.49970006942749023 3.86907124519348145 0.359908968210220337 0.857130348682403564 -0.368501096963882446
-4.83568859100341797 5.49970006942749023 3.869140625 -0.159552037715911865 0.968163371086120605 -0.19288027286529541
-3.28392720222473145 5.49970006942749023 3.7411346435546875 -0.320405036211013794 0.855891108512878418 -0.405944585800170898
-0.000300000014249235392 3.84726166725158691 1.41838967800140381 0.916105985641479492 0.0648186728358268738 -0.395661741495132446
-0.477367401123046875 5.49970006942749023 1.9814307689666748 0.207105010747909546 0.920298218727111816 -0.33190155029296875
-2.54790711402893066 3.62575459480285645 5.49970006942749023 -0.205679282546043396 0.458451807498931885 0.864591479301452637
-2.54768586158752441 3.62564301490783691 5.49970006942749023 0.44260367751121521 0.140164420008659363 0.885695219039916992
-5.49970006942749023 2.79424309730529785 5.2266240119934082 -0.984536170959472656 0.16996900737285614 -0.0424145571887493134
-4.32045841217041016 5.49970006942749023 4.35583782196044922 -0.0544568374752998352 0.920680522918701172 0.386499524116516113
-4.32054328918457031 5.49970006942749023 4.35579013824462891 -0.314351022243499756 0.918678402900695801 0.239193335175514221
-4.32039213180541992 5.49970006942749023 4.35556268692016602 -0.148151099681854248 0.978814661502838135 0.141326054930686951
-4.32039546966552734 5.49970006942749023 4.35547494888305664 -0.159031480550765991 0.976660490036010742 -0.144371762871742249
-0.000300000014249235392 1.92699980735778809 5.23957681655883789 0.999117553234100342 0.0201374087482690811 -0.0368585139513015747
-3.26822853088378906 0.988937735557556152 0.000300000014249235392 -0.0070001920685172081 -0.0533123165369033813 -0.998553335666656494
-0.000300000014249235392 1.40632081031799316 4.24070405960083008 0.958975493907928467 -0.141631782054901123 -0.245573610067367554
-3.00425457954406738 5.49970006942749023 5.35994529724121094 -0.491858601570129395 0.851173162460327148 -0.18324674665927887
-0.000300000014249235392 4.06778287887573242 2.68953967094421387 0.944044232368469238 0.0949179455637931824 -0.315865576267242432
-0.000300000014249235392 -0.481698036193847656 1.1192251443862915 0.906653761863708496 -0.192839115858078003 -0.375222653150558472
-0.000300000014249235392 2.11533498764038086 4.71702098846435547 0.990383386611938477 -0.0341738313436508179 -0.13406255841255188
-5.41125106811523438 4.22231674194335938 5.49970006942749023 -0.499195069074630737 0.295163899660110474 0.814667105674743652
-0.000300000014249235392 4.90157985687255859 4.39871883392333984 0.93884730339050293 0.30698925256729126 -0.15595892071723938
-2.78880572319030762 3.0127718448638916 3.3002924919128418 -0.13258381187915802 -0.605780243873596191 -0.784507334232330322
-2.78871583938598633 3.01303720474243164 3.3002924919128418 0.128493025898933411 0.111194126307964325 -0.985456943511962891
-5.13564395904541016 4.16283416748046875 0.000300000014249235392 -0.085139445960521698 -0.271429985761642456 -0.958685040473937988
-4.71649074554443359 5.49970006942749023 4.72159433364868164 -0.455696970224380493 0.754880964756011963 -0.471693724393844604
-4.71591615676879883 5.49970006942749023 4.72235774993896484 -0.305508732795715332 0.945944905281066895 -0.108869008719921112
-0.000300000014249235392 2.380462646484375 3.62005233764648438 0.963988304138183594 -0.021487036719918251 -0.265075057744979858
-3.59950566291809082 5.49970006942749023 5.06057834625244141 -0.083025418221950531 0.917558550834655762 0.388835400342941284
-5.49970006942749023 4.43453693389892578 4.50601053237915039 -0.945212602615356445 0.290355861186981201 -0.149219527840614319
-5.49970006942749023 0.513320684432983398 5.46295070648193359 -0.953534245491027832 -0.301284283399581909 -0.000495742366183549166
-5.49970006942749023 0.521661996841430664 3.92584419250488281 -0.964854657649993896 -0.157110512256622314 -0.210645869374275208
-4.06674098968505859 3.14123988151550293 3.3002922534942627 -0.286756157875061035 0.193213030695915222 -0.938317418098449707
-1.56766033172607422 5.49970006942749023 4.39464759826660156 -0.221789717674255371 0.969652891159057617 -0.102871321141719818
-0.170726776123046875 5.49970006942749023 2.22060298919677734 0.204917863011360168 0.921877622604370117 -0.328862011432647705
-2.43115639686584473 5.49970006942749023 4.00588798522949219 -0.00435207365080714226 0.972429275512695312 -0.233157113194465637
-3.42751288414001465 3.32275485992431641 3.3002922534942627 -0.0227238498628139496 0.241863816976547241 -0.97004401683807373
-0.000300000014249235392 3.90870165824890137 3.75949621200561523 0.953234612941741943 0.205476418137550354 -0.221637353301048279
-0.000300000014249235392 4.44397306442260742 3.56926274299621582 0.948962032794952393 0.177992254495620728 -0.260364711284637451
-5.49970006942749023 1.2835313081741333 0.670685529708862305 -0.90589594841003418 -0.02420843206346035 -0.422807812690734863
-5.49970006942749023 1.20655965805053711 4.13802957534790039 -0.966205418109893799 -0.191952899098396301 -0.172049924731254578
-3.96350288391113281 5.49970006942749023 5.339019775390625 -0.066318221390247345 0.996373772621154785 0.0533027760684490204
-0.000300000014249235392 1.35476016998291016 4.95249557495117188 0.981260478496551514 -0.176145121455192566 -0.0781073421239852905
-0.000300000014249235392 2.44765424728393555 4.82219886779785156 0.991346120834350586 0.0213066153228282928 -0.129533126950263977
-5.49970006942749023 4.62313556671142578 3.66832208633422852 -0.963538467884063721 0.153365761041641235 -0.219254463911056519
-5.49970006942749023 2.80405306816101074 5.03993034362792969 -0.97704005241394043 0.19687633216381073 -0.0814396068453788757
-5.49970006942749023 0.012126922607421875 1.71229684352874756 -0.911870241165161133 -0.26151353120803833 -0.316391140222549438
-0.000300000014249235392 0.512033700942993164 4.31439590454101562 0.972573280334472656 -0.178857654333114624 -0.148697882890701294
-0.316945075988769531 5.49970006942749023 2.68619132041931152 -0.916033685207366943 0.127864047884941101 -0.380175113677978516
-0.314886808395385742 5.49970006942749023 2.68689918518066406 -0.249273240566253662 0.825838208198547363 -0.505820155143737793
-3.23795199394226074 3.36372613906860352 3.3002922534942627 0.063937552273273468 0.213542923331260681 -0.974839091300964355
-5.49970006942749023 5.42346572875976562 3.35357213020324707 -0.999312043190002441 -0.0369039587676525116 0.00367446639575064182
-3.43584609031677246 5.49970006942749023 3.34580373764038086 -0.467211514711380005 0.7604866623878479 -0.45096936821937561
-2.49540042877197266 1.99645733833312988 1.65029633045196533 -0.364011704921722412 -0.876709520816802979 -0.314445436000823975
-2.49506211280822754 1.99723315238952637 1.65029633045196533 -0.0290521979331970215 -0.197696581482887268 -0.979832649230957031
-2.49457955360412598 1.99743866920471191 1.65029633045196533 0.801329135894775391 0.123836815357208252 -0.585265874862670898
-2.49495601654052734 1.99736940860748291 1.65029633045196533 0.11324792355298996 -0.0191143844276666641 -0.993382811546325684
-5.49970006942749023 3.46303176879882812 5.17843437194824219 -0.964345276355743408 0.258934944868087769 -0.0546888411045074463
-5.49970006942749023 2.81847858428955078 3.39403510093688965 -0.963782906532287598 0.100788131356239319 -0.246909141540527344
-0.000300000014249235392 2.66515040397644043 0.849354863166809082 0.918875694274902344 -0.0452228933572769165 -0.391946852207183838
-0.475156068801879883 5.49970006942749023 2.39749717712402344 0.635514557361602783 0.173369541764259338 -0.752372384071350098
-0.476163625717163086 5.49970006942749023 2.39869523048400879 0.278157085180282593 0.90795433521270752 -0.313444674015045166
-5.49970006942749023 1.68090915679931641 5.11714553833007812 -0.995936870574951172 -0.0780828073620796204 -0.0448640212416648865
-1.39184939861297607 5.49970006942749023 4.70913171768188477 0.569944083690643311 0.781316518783569336 -0.254378139972686768
-0.000300000014249235392 1.75703752040863037 0.0953650474548339844 0.904544472694396973 -0.0270123444497585297 -0.425522714853286743
-0.000300000014249235392 3.5824425220489502 5.39691448211669922 0.976105332374572754 0.217122599482536316 -0.00871608313173055649
-5.49970006942749023 5.10544395446777344 3.36786937713623047 -0.93641352653503418 0.262114495038986206 -0.233292952179908752
-3.36232805252075195 5.49970006942749023 3.71471691131591797 -0.0391464605927467346 0.973290205001831055 -0.226215928792953491
-0.830747127532958984 2.52233672142028809 0.000300000014249235392 -0.0473330728709697723 -0.217718735337257385 -0.974863052368164062
-2.86925458908081055 5.49970006942749023 5.25508356094360352 0.235475614666938782 0.969166278839111328 0.072579897940158844
-5.49970006942749023 3.02638006210327148 1.69703876972198486 -0.907263636589050293 0.0262730065733194351 -0.419740885496139526
-3.9476475715637207 5.49970006942749023 4.60604572296142578 -0.847577154636383057 0.355056971311569214 -0.394395142793655396
-3.94701623916625977 5.49970006942749023 4.60634136199951172 -0.268579065799713135 0.95571976900100708 -0.120269998908042908
-3.72475242614746094 5.49970006942749023 2.80811381340026855 0.693369805812835693 0.680067181587219238 -0.23821607232093811
-3.72508668899536133 5.49970006942749023 2.80812191963195801 -0.0899807661771774292 0.947565197944641113 -0.306632757186889648
-5.49970006942749023 0.804365992546081543 2.41501665115356445 -0.91415095329284668 -0.23500099778175354 -0.330306857824325562
-5.49970006942749023 2.37638759613037109 4.6761937141418457 -0.993013739585876465 0.00250116409733891487 -0.117972508072853088
-0.000300000014249235392 4.89733457565307617 5.08464145660400391 0.954886436462402344 0.293120741844177246 -0.0476669035851955414
-5.49970006942749023 3.23543071746826172 3.94563031196594238 -0.960470974445343018 0.198841661214828491 -0.194826811552047729
-5.49970006942749023 0.458955049514770508 2.2167503833770752 -0.933858156204223633 -0.188670262694358826 -0.303829669952392578
-5.49970006942749023 2.54663944244384766 2.75689315795898438 -0.920649230480194092 -0.0660796985030174255 -0.384757518768310547
-0.000300000014249235392 1.12422764301300049 3.80846261978149414 0.941920101642608643 -0.17764340341091156 -0.285007387399673462
-0.000300000014249235392 0.135820627212524414 3.92814493179321289 0.938648641109466553 -0.296789497137069702 -0.175654754042625427
-4.08556270599365234 2.52010178565979004 2.02152466773986816 -0.40476033091545105 0.757204890251159668 -0.512649714946746826
-4.0855865478515625 2.52009439468383789 2.02167606353759766 -0.463209152221679688 0.782293021678924561 -0.416479170322418213
-5.49970006942749023 3.60837888717651367 3.7386620044708252 -0.961563408374786377 0.175842359662055969 -0.210891515016555786
-2.38473701477050781 5.49970006942749023 5.32058811187744141 -0.0392389483749866486 0.998848974704742432 -0.0275840405374765396
-1.70212972164154053 -0.0526068210601806641 5.49970006942749023 0.0589399859309196472 -0.388369232416152954 0.919617056846618652
-0.000300000014249235392 2.5771479606628418 2.79769158363342285 0.954874157905578613 0.077007003128528595 -0.286854028701782227
-2.16388416290283203 5.49970006942749023 4.0811772346496582 0.154659822583198547 0.967586398124694824 -0.199641674757003784
-5.49970006942749023 -0.156027555465698242 5.4649205207824707 -0.956131875514984131 -0.292936384677886963 -0.000169713952345773578
-0.000300000014249235392 0.803406715393066406 4.37761592864990234 0.960972905158996582 -0.238645970821380615 -0.139925554394721985
-3.24841547012329102 3.68756294250488281 3.3002922534942627 0.0595887154340744019 0.287756443023681641 -0.955847978591918945
-4.63207578659057617 3.47227978706359863 5.49970006942749023 -0.357947170734405518 0.0760195925831794739 0.930642247200012207
-0.431080102920532227 0.357084274291992188 0.000300000014249235392 -0.302046209573745728 0.174752622842788696 -0.937139034271240234
-0.43093109130859375 0.356990575790405273 0.000300000014249235392 0.171251669526100159 -0.123091600835323334 -0.977507710456848145
-0.244576930999755859 5.49970006942749023 4.65956878662109375 0.497362822294235229 0.536738097667694092 0.681573569774627686
-0.244582891464233398 5.49970006942749023 4.65923738479614258 0.666774988174438477 0.735215842723846436 0.121937170624732971
-5.11631870269775391 -0.548055171966552734 0.000300000014249235392 -0.251986294984817505 -0.842825233936309814 -0.475550651550292969
-5.1162261962890625 -0.547587871551513672 0.000300000014249235392 -0.211764723062515259 -0.205245435237884521 -0.955525994300842285
-5.19290733337402344 5.49970006942749023 4.25372934341430664 -0.774635910987854004 0.279769390821456909 -0.567158162593841553
-5.19216442108154297 5.49970006942749023 4.25429201126098633 -0.277127623558044434 0.950091898441314697 -0.143267706036567688
-5.49970006942749023 2.62273740768432617 4.21567249298095703 -0.977819621562957764 0.0650879070162773132 -0.199078664183616638
-5.49970006942749023 3.25026464462280273 4.87290859222412109 -0.991451382637023926 0.0448728352785110474 -0.122517824172973633
-0.000300000014249235392 -0.301314592361450195 4.72276926040649414 0.930943489074707031 -0.354588985443115234 -0.0872394517064094543
-5.49970006942749023 1.18611824512481689 4.08120059967041016 -0.94398951530456543 -0.24724896252155304 -0.218521237373352051
-0.633797645568847656 2.31252479553222656 0.000300000014249235392 0.420380890369415283 0.473517507314682007 -0.773990392684936523
-0.633793115615844727 2.31238460540771484 0.000300000014249235392 0.483250796794891357 0.125567808747291565 -0.866430282592773438
-0.634103298187255859 2.31213545799255371 0.000300000014249235392 0.336768239736557007 -0.367208480834960938 -0.867032349109649658
-0.63418889045715332 2.31226301193237305 0.000300000014249235392 0.102936506271362305 0.00133243994787335396 -0.994687020778656006
-2.45090031623840332 1.9338996410369873 2.54083561897277832 0.82811439037322998 -0.393714785575866699 -0.399017810821533203
-0.000300000014249235392 0.889649510383605957 5.1702733039855957 0.951638460159301758 -0.301465153694152832 -0.0591853521764278412
-5.49970006942749023 -0.433947086334228516 4.14139223098754883 -0.947032332420349121 -0.295415014028549194 -0.125934839248657227
-5.49970006942749023 3.73478984832763672 5.33378744125366211 -0.977556228637695312 0.209973186254501343 -0.0171781629323959351
-5.49970006942749023 -0.965767145156860352 4.29752540588378906 -0.928019046783447266 -0.354092597961425781 -0.115754522383213043
-0.000300000014249235392 1.16294538974761963 3.64716815948486328 0.934873104095458984 -0.181527242064476013 -0.305057495832443237
-5.49970006942749023 3.20943689346313477 4.94611930847167969 -0.987823843955993652 0.136969447135925293 -0.0737786144018173218
-3.38077402114868164 3.25282478332519531 3.3002922534942627 0.0549659430980682373 0.0588984563946723938 -0.996749579906463623
-0.000300000014249235392 3.06828975677490234 2.00918960571289062 0.918890178203582764 0.0172642562538385391 -0.394135266542434692
-0.694424152374267578 5.49970006942749023 4.05279111862182617 0.198892593383789062 0.964655041694641113 -0.172864943742752075
-5.49970006942749023 2.9095149040222168 3.11649084091186523 -0.955640792846679688 0.00543295545503497124 -0.29448428750038147
-5.49970006942749023 2.39307355880737305 2.89940452575683594 -0.920243144035339355 -0.0391045957803726196 -0.389388233423233032
-0.000300000014249235392 -0.874146461486816406 0.666849851608276367 0.906173229217529297 -0.263770937919616699 -0.33056756854057312
-5.44009876251220703 5.49970006942749023 4.55855798721313477 -0.211127236485481262 0.951561212539672852 0.223509758710861206
-5.49970006942749023 -0.5570220947265625 2.65778326988220215 -0.907011628150939941 -0.287830740213394165 -0.307381272315979004
-5.49970006942749023 1.69270753860473633 3.60291838645935059 -0.944449543952941895 -0.10495951771736145 -0.311445891857147217
-5.49970006942749023 3.18056488037109375 4.52467250823974609 -0.976676464080810547 0.102769233286380768 -0.188524499535560608
-0.000300000014249235392 1.42432761192321777 4.67455196380615234 0.969036102294921875 -0.22375209629535675 -0.104422286152839661
-5.49970006942749023 2.71192789077758789 2.24860596656799316 -0.912612795829772949 0.0949710160493850708 -0.39764094352722168
-3.2734222412109375 3.75602054595947266 3.3002922534942627 -0.1371622234582901 0.147299021482467651 -0.979535341262817383
-0.000300000014249235392 4.34370040893554688 5.27371931076049805 0.946089386940002441 0.322373121976852417 -0.0314684174954891205
-5.49970006942749023 3.3494102954864502 4.35132646560668945 -0.975139617919921875 0.108373671770095825 -0.193281739950180054
-5.49970006942749023 3.20736336708068848 2.39684700965881348 -0.928145945072174072 0.127622082829475403 -0.349653571844100952
-5.49970006942749023 1.90420794486999512 1.74408960342407227 -0.940506696701049805 -0.0574799664318561554 -0.334877669811248779
-0.000300000014249235392 -0.664123296737670898 5.3712310791015625 0.950094103813171387 -0.311812520027160645 -0.00969822704792022705
-0.000300000014249235392 4.49164628982543945 4.15655279159545898 0.971019268035888672 0.160157725214958191 -0.177401021122932434
-3.21686601638793945 2.82953572273254395 5.49970006942749023 0.854924619197845459 -0.269185274839401245 0.443444639444351196
-3.21735286712646484 2.8296504020690918 5.49970006942749023 0.285233050584793091 -0.210229188203811646 0.93511807918548584
-0.000300000014249235392 2.02935791015625 3.27883577346801758 0.939694464206695557 -0.0147585673257708549 -0.341696441173553467
-0.000300000014249235392 4.92543601989746094 5.25481843948364258 0.947982192039489746 0.31752285361289978 -0.0225600861012935638
-3.73283267021179199 -0.490330219268798828 0.000300000014249235392 -0.00540625676512718201 -0.191888958215713501 -0.981401741504669189
-3.73286628723144531 -0.490325927734375 0.000300000014249235392 -0.114779539406299591 -0.177363097667694092 -0.97742927074432373
-0.000300000014249235392 3.68094778060913086 4.12780475616455078 0.944700360298156738 0.272000342607498169 -0.18318571150302887
-0.000300000014249235392 2.42170310020446777 0.799262523651123047 0.925659418106079102 0.0251520760357379913 -0.377520710229873657
-5.49970006942749023 5.09340763092041016 4.10233831405639648 -0.956052184104919434 0.256907492876052856 -0.141289174556732178
-4.80759239196777344 5.49970006942749023 2.99058246612548828 -0.205058157444000244 0.845164716243743896 -0.493606835603713989
-4.80753517150878906 5.49970006942749023 2.99074363708496094 -0.051321517676115036 0.997596144676208496 -0.0465615019202232361
-0.000300000014249235392 2.70742201805114746 5.17793178558349609 0.986925840377807617 0.155135303735733032 -0.0437081791460514069
-1.45826971530914307 5.49970006942749023 4.49373435974121094 0.113753445446491241 0.986187338829040527 -0.120393842458724976
-5.49970006942749023 -0.198267698287963867 4.038909912109375 -0.920086801052093506 -0.335151255130767822 -0.202765434980392456
-0.000300000014249235392 0.989800930023193359 3.5885014533996582 0.958682417869567871 -0.206680729985237122 -0.195476353168487549
-1.22594809532165527 3.76595735549926758 0.000300000014249235392 0.140432834625244141 0.126438722014427185 -0.981983661651611328
-5.49970006942749023 4.14337778091430664 4.89001131057739258 -0.953496932983398438 0.290946841239929199 -0.0786984637379646301
-5.49970006942749023 4.33673572540283203 1.74805378913879395 -0.901379525661468506 0.22344854474067688 -0.370925337076187134
-5.49970006942749023 0.868302822113037109 3.53870534896850586 -0.945675134658813477 -0.24632909893989563 -0.212180018424987793
-3.94775056838989258 5.49970006942749023 5.02500152587890625 -0.0896368995308876038 0.975362300872802734 0.201577290892601013
-0.000300000014249235392 4.37267255783081055 4.39134740829467773 0.92695307731628418 0.341660141944885254 -0.155003964900970459
-2.46649527549743652 -0.314138412475585938 0.000300000014249235392 0.20236244797706604 -0.169484138488769531 -0.964533329010009766
-2.46652793884277344 -0.31405329704284668 0.000300000014249235392 0.0995736122131347656 0.106714703142642975 -0.989291191101074219
-2.4667975902557373 -0.314269542694091797 0.000300000014249235392 -0.543231427669525146 -0.136827126145362854 -0.828358590602874756
-2.46659970283508301 -0.314278364181518555 0.000300000014249235392 0.00375171075575053692 -0.191447541117668152 -0.98149561882019043
-5.49970006942749023 3.99131131172180176 3.01454019546508789 -0.934650003910064697 0.0942078903317451477 -0.342861711978912354
-5.49970006942749023 3.05471944808959961 1.13293826580047607 -0.90677487850189209 0.064455859363079071 -0.416658937931060791
-0.000300000014249235392 3.97021842002868652 2.18742060661315918 0.942121148109436035 0.0667892917990684509 -0.328552693128585815
-2.92477011680603027 3.20364761352539062 3.3002924919128418 -0.695055603981018066 0.718353092670440674 -0.0294358003884553909
-2.91785430908203125 3.19641685485839844 3.3002924919128418 -0.479506254196166992 0.263025254011154175 -0.8371925950050354
-3.84332489967346191 2.70031261444091797 3.3002924919128418 -0.115052029490470886 0.200404271483421326 -0.972934246063232422
-1.46281242370605469 5.49970006942749023 4.39633893966674805 0.161899775266647339 0.97497028112411499 -0.152385443449020386
-5.49970006942749023 5.29650259017944336 2.09267997741699219 -0.902708530426025391 0.23683127760887146 -0.359204888343811035
-3.12885165214538574 2.70992755889892578 0.000300000014249235392 0.484929889440536499 -0.418179333209991455 -0.768094420433044434
-3.12904977798461914 2.71011447906494141 0.000300000014249235392 -0.0295127425342798233 0.0787222534418106079 -0.996459603309631348
-4.84909248352050781 5.49970006942749023 4.02881717681884766 -0.536540329456329346 0.843825817108154297 0.00907237734645605087
-4.84903430938720703 5.49970006942749023 4.0287623405456543 -0.398813098669052124 0.903861284255981445 -0.154863998293876648
-4.84892845153808594 5.49970006942749023 4.02877235412597656 -0.302557826042175293 0.940434932708740234 -0.155051156878471375
-5.49970006942749023 1.41392838954925537 5.18075656890869141 -0.977674186229705811 -0.20137333869934082 -0.0600153282284736633
-2.77385663986206055 2.59450507164001465 0.000300000014249235392 0.00491703813895583153 -0.00971404090523719788 -0.999940633773803711
-3.3761754035949707 5.49970006942749023 5.26706314086914062 -0.0525239631533622742 0.998034179210662842 -0.0341905876994132996
-0.000300000014249235392 2.01496362686157227 4.17850542068481445 0.976505637168884277 -0.0555270835757255554 -0.208214715123176575
-5.49970006942749023 4.30242538452148438 4.66969919204711914 -0.943036019802093506 0.316129326820373535 -0.103659249842166901
-0.000300000014249235392 2.2928309440612793 3.48160648345947266 0.936717689037322998 -0.0860483348369598389 -0.339345693588256836
-5.49970006942749023 2.45261287689208984 4.12163162231445312 -0.960126578807830811 0.00522016594186425209 -0.279516726732254028
-3.60123538970947266 2.67034482955932617 3.00039577484130859 -0.398783475160598755 0.799526095390319824 -0.449143260717391968
-0.000300000014249235392 4.35770559310913086 4.18652629852294922 0.952477574348449707 0.247373729944229126 -0.177743136882781982
-0.000300000014249235392 1.5749366283416748 4.69776535034179688 0.982863962650299072 -0.129240542650222778 -0.131435170769691467
-0.000300000014249235392 -0.696640968322753906 2.11785984039306641 0.929520845413208008 -0.254000276327133179 -0.267347663640975952
