ply
format ascii 1.0
element vertex 381
property float x
property float y
property float z
property float nx
property float ny
property float nz
end_header
-1.36881554126739502 1.8713080883026123 2.81886482238769531 -0.686803638935089111 -0.306646198034286499 -0.658990800380706787
-1.5044330358505249 1.99002993106842041 2.86836767196655273 -0.492145776748657227 -0.475185692310333252 -0.729377269744873047
-4.23441791534423828 0.752909660339355469 5.49700021743774414 -0.582654714584350586 -0.230103671550750732 0.779465377330780029
-2.50622749328613281 1.70887601375579834 2.5512537956237793 0.958480238914489746 -0.0734940618276596069 -0.275525569915771484
-0.00300000002607703209 4.15436124801635742 0.499352931976318359 0.711159884929656982 0.406439512968063354 -0.573636293411254883
-0.00300000002607703209 -0.542112112045288086 5.42560148239135742 0.744646370410919189 -0.665855109691619873 -0.0462472215294837952
-0.775214433670043945 5.49700069427490234 2.11527132987976074 0.208599820733070374 0.969204604625701904 0.130876004695892334
-1.27592110633850098 1.60810184478759766 1.96599030494689941 -0.675988435745239258 -0.0281041935086250305 0.736376166343688965
-3.52570247650146484 2.05727720260620117 0.00300023844465613365 0.417036920785903931 0.586768686771392822 -0.694105684757232666
-2.07086682319641113 1.41430175304412842 2.96476054191589355 0.84649348258972168 0.526542782783508301 -0.0787493214011192322
-1.69106757640838623 1.90474486351013184 2.99231314659118652 -0.102819599211215973 -0.354002952575683594 -0.929575264453887939
-1.7136760950088501 1.70854377746582031 3.04077363014221191 -0.174208715558052063 -0.0696372315287590027 -0.98224341869354248
-1.25793552398681641 2.03139758110046387 2.34989762306213379 -0.787378311157226562 -0.559631943702697754 -0.258548885583877563
-3.50300264358520508 -0.963978052139282227 0.00300000002607703209 0.452595919370651245 -0.310946911573410034 -0.835744559764862061
-2.44341158866882324 1.81256318092346191 2.67064833641052246 0.893338203430175781 -0.184293776750564575 -0.409857034683227539
-2.31381320953369141 1.88349401950836182 1.89810347557067871 0.687193095684051514 -0.308160632848739624 0.657877445220947266
-1.87727618217468262 2.04182052612304688 2.9405357837677002 0.0418755188584327698 -0.531409859657287598 -0.846079230308532715
-5.49700021743774414 5.44514799118041992 4.79010581970214844 -0.713064312934875488 -0.024367310106754303 0.700675010681152344
-5.49700021743774414 0.458529233932495117 0.686474084854125977 -0.673606932163238525 0.113624215126037598 0.730303525924682617
-3.56208181381225586 3.1241755485534668 3.30299258232116699 0.356663018465042114 -0.80803370475769043 -0.468906402587890625
-4.55042028427124023 3.52130556106567383 2.59064865112304688 0.280404716730117798 -0.774597346782684326 0.566896915435791016
-2.11334514617919922 2.14906454086303711 1.65299630165100098 0.00858604907989501953 -0.117504656314849854 -0.993035256862640381
-5.30378532409667969 3.0871272087097168 0.00300000002607703209 0.234172061085700989 0.657096982002258301 -0.716510295867919922
-2.04338669776916504 1.73338413238525391 3.02078437805175781 0.302907168865203857 -0.105719476938247681 -0.947138130664825439
-2.03994655609130859 2.0895850658416748 2.87059903144836426 0.277553260326385498 -0.628881275653839111 -0.726273059844970703
-0.00300000002607703209 2.1929328441619873 0.0527119636535644531 0.961463809013366699 -0.269960999488830566 0.0520423650741577148
-2.1474759578704834 1.27624619007110596 2.84523296356201172 0.446307748556137085 0.564294815063476562 -0.694536447525024414
-2.4687047004699707 1.86448752880096436 2.57698416709899902 0.899330854415893555 -0.296892642974853516 -0.321027696132659912
-2.18918347358703613 1.42797696590423584 2.91141605377197266 0.502275288105010986 0.347057044506072998 -0.79200434684753418
-1.65246152877807617 1.78469562530517578 3.01581907272338867 -0.264880537986755371 -0.174768060445785522 -0.948311328887939453
-2.03756117820739746 1.30044937133789062 1.80038940906524658 0.294218778610229492 0.553486406803131104 0.779158651828765869
-2.2733149528503418 1.31119298934936523 2.77083849906921387 0.735970020294189453 0.467829287052154541 -0.489370882511138916
-2.42765498161315918 1.68565905094146729 1.98686957359313965 0.833408355712890625 -0.0168288704007863998 0.552401423454284668
-2.08678078651428223 1.52603960037231445 2.9941565990447998 0.353148162364959717 0.192443907260894775 -0.91556084156036377
-2.35690760612487793 1.30989491939544678 2.65712547302246094 0.731432557106018066 0.506919980049133301 -0.456112504005432129
-1.36630487442016602 1.38110101222991943 2.77216529846191406 -0.705919444561004639 0.398289620876312256 -0.585698843002319336
-4.95034360885620117 0.151490688323974609 5.49699926376342773 0.037488885223865509 -0.619682371616363525 0.783956825733184814
-2.15753793716430664 1.16148209571838379 2.71488666534423828 0.46751028299331665 0.728745520114898682 -0.500363945960998535
-2.37264585494995117 1.72671139240264893 2.80183053016662598 0.749368786811828613 -0.0929152145981788635 -0.655601322650909424
-2.19134998321533203 1.29249894618988037 2.82819175720214844 0.497980237007141113 0.518471121788024902 -0.695128381252288818
-4.51662874221801758 3.41237521171569824 2.81219816207885742 0.211336299777030945 0.685815274715423584 0.696415364742279053
-5.49700021743774414 3.15415740013122559 1.97541189193725586 -0.99044722318649292 0.136748939752578735 -0.0177221950143575668
-1.67721951007843018 5.49700021743774414 3.98412060737609863 -0.0235750656574964523 0.964717686176300049 -0.262228876352310181
-1.66241037845611572 1.20262718200683594 2.84161949157714844 -0.0413792505860328674 0.430938363075256348 -0.901432156562805176
-2.34974503517150879 1.45749235153198242 2.7834935188293457 0.635332167148590088 0.162256181240081787 -0.755000710487365723
-2.27836179733276367 2.04984545707702637 2.73584866523742676 0.638528943061828613 -0.548422813415527344 -0.539919614791870117
-5.49700021743774414 2.39830255508422852 1.60596323013305664 -0.396119862794876099 -0.407792985439300537 -0.822674810886383057
-5.49700021743774414 4.54424095153808594 3.77408862113952637 -0.698716521263122559 0.715396702289581299 -0.00158044695854187012
-1.79898738861083984 3.08396482467651367 5.49700021743774414 0.0126705234870314598 0.411936044692993164 0.911124587059020996
-0.00300000002607703209 3.81025791168212891 4.98040008544921875 0.940615832805633545 0.166435092687606812 -0.29587361216545105
-2.3166649341583252 1.22410750389099121 2.11314702033996582 0.685906648635864258 0.623502731323242188 0.375201940536499023
-2.06898689270019531 1.69100260734558105 1.70107710361480713 0.85409843921661377 -0.49354100227355957 0.164113551378250122
-2.03408360481262207 1.06701815128326416 2.64915561676025391 0.289212435483932495 0.863285064697265625 -0.413636445999145508
-5.49700021743774414 1.04320907592773438 4.05299758911132812 -0.892479240894317627 -0.178249239921569824 -0.414376646280288696
-1.89798200130462646 1.62559843063354492 3.0513756275177002 0.197073012590408325 -0.0154739869758486748 -0.980266690254211426
-1.56432950496673584 1.39806771278381348 2.93490123748779297 -0.412659019231796265 0.393083095550537109 -0.821704506874084473
-2.1906895637512207 1.19143283367156982 2.72506546974182129 0.490326523780822754 0.683511018753051758 -0.540733397006988525
-2.40937900543212891 1.99071323871612549 2.12943482398986816 0.539156556129455566 -0.628474831581115723 0.560651063919067383
-1.75324487686157227 1.16426372528076172 2.82873940467834473 -0.118496716022491455 0.708718955516815186 -0.69546818733215332
-2.03795361518859863 1.23574769496917725 1.65299618244171143 -0.066942363977432251 -0.521689653396606445 -0.850505053997039795
-2.34921002388000488 1.82103991508483887 1.91051328182220459 0.795868456363677979 -0.306606113910675049 0.522097885608673096
-3.85162138938903809 4.31171703338623047 3.30299210548400879 -0.562294423580169678 0.547615706920623779 -0.619630575180053711
-2.41669368743896484 2.05086064338684082 2.38578343391418457 0.68053734302520752 -0.709791660308837891 0.181836962699890137
-5.49700021743774414 5.1303248405456543 3.03184032440185547 -0.637318551540374756 0.765465259552001953 -0.0888141095638275146
-1.68078994750976562 1.99609529972076416 2.94639873504638672 -0.233406543731689453 -0.478080928325653076 -0.846734941005706787
-2.37768173217773438 5.21195888519287109 5.49700021743774414 -0.281602919101715088 -0.100493669509887695 0.954254031181335449
-2.19445443153381348 2.05336928367614746 2.81282734870910645 0.485114336013793945 -0.457294881343841553 -0.745349228382110596
-1.31907689571380615 1.58987855911254883 2.80458378791809082 -0.746057391166687012 0.091244824230670929 -0.659600496292114258
-1.70263671875 2.32634687423706055 2.5021214485168457 -0.20705375075340271 -0.951515316963195801 -0.227480649948120117
-4.34744739532470703 4.16988229751586914 0.876252412796020508 -0.141284361481666565 -0.828491628170013428 0.541885972023010254
-1.9914400577545166 1.93100297451019287 2.98290181159973145 0.222287207841873169 -0.394840478897094727 -0.89145350456237793
-1.93618011474609375 2.04531073570251465 2.93170547485351562 0.129061803221702576 -0.561020731925964355 -0.817678928375244141
-2.35010361671447754 1.88200032711029053 1.9381411075592041 0.710519075393676758 -0.340269982814788818 0.615937471389770508
-2.09936642646789551 1.31756126880645752 2.90166521072387695 0.353142440319061279 0.496668696403503418 -0.792849719524383545
-1.39011693000793457 1.16088950634002686 2.49183487892150879 -0.488772183656692505 0.636918783187866211 -0.596184730529785156
-1.45022368431091309 1.62912344932556152 2.92882204055786133 -0.567498326301574707 0.0406992323696613312 -0.822368085384368896
-2.12478470802307129 2.01705384254455566 2.8858489990234375 0.409939825534820557 -0.519671499729156494 -0.749593853950500488
-1.84650027751922607 1.73135936260223389 3.0514676570892334 -0.025590650737285614 -0.113456994295120239 -0.993213355541229248
-0.00300023844465613365 2.13372039794921875 3.85212326049804688 0.94714123010635376 -0.128471240401268005 0.293970465660095215
-3.72491741180419922 -0.823029041290283203 5.49700021743774414 -0.428710699081420898 -0.567007780075073242 0.703356027603149414
-1.54417526721954346 2.23100805282592773 2.62029886245727539 -0.41147652268409729 -0.834370911121368408 -0.366759240627288818
-2.32522439956665039 1.54714369773864746 1.87357509136199951 0.707219421863555908 0.158590584993362427 0.688977360725402832
-2.89574718475341797 2.26853275299072266 5.49700021743774414 -0.312859296798706055 0.181400477886199951 0.932316064834594727
-1.90858185291290283 1.53957474231719971 3.03996634483337402 0.0949364304542541504 0.20884375274181366 -0.973330080509185791
-1.43604123592376709 1.50342035293579102 1.65299630165100098 -0.658179044723510742 -0.00934856943786144257 -0.752803444862365723
-5.49700021743774414 0.654573440551757812 1.69971227645874023 -0.754390358924865723 -0.402730584144592285 0.518365979194641113
-5.49700021743774414 1.77136099338531494 5.38137340545654297 -0.920558333396911621 0.375277340412139893 -0.108347803354263306
-2.46237015724182129 1.36516749858856201 2.28691768646240234 0.889628052711486816 0.436678498983383179 0.133693382143974304
-2.45268702507019043 1.61542439460754395 2.03304243087768555 0.901231706142425537 0.0814054384827613831 0.425622642040252686
-1.57656896114349365 1.55462419986724854 2.99007034301757812 -0.373738110065460205 0.139913231134414673 -0.916921019554138184
-2.02703952789306641 1.15165185928344727 2.7856597900390625 0.249860942363739014 0.741988182067871094 -0.622111737728118896
-2.36552000045776367 2.05992341041564941 2.58225369453430176 0.745446085929870605 -0.584346354007720947 -0.32070159912109375
-2.42885541915893555 1.52788162231445312 2.70154666900634766 0.846867203712463379 0.184929758310317993 -0.498614966869354248
-5.49700021743774414 2.11492061614990234 2.71465039253234863 -0.988592982292175293 0.119403272867202759 0.0917975902557373047
-3.38980984687805176 5.49700021743774414 1.21330320835113525 -0.284226804971694946 0.954158782958984375 -0.0937879085540771484
-1.53988170623779297 1.8930211067199707 2.93944692611694336 -0.417746067047119141 -0.331546485424041748 -0.845910906791687012
-2.80542922019958496 0.904367327690124512 5.49700021743774414 0.0193384401500225067 -0.275427401065826416 0.961127340793609619
-2.29063582420349121 2.0844881534576416 2.67981529235839844 0.645789444446563721 -0.613745629787445068 -0.454172134399414062
-3.9648289680480957 4.7598414421081543 5.49699926376342773 -0.453725188970565796 -0.131687968969345093 0.881357908248901367
-1.78038263320922852 1.14293205738067627 2.80916142463684082 -0.0897243022918701172 0.746524453163146973 -0.659280538558959961
-2.49803876876831055 1.44732284545898438 2.40252971649169922 0.943184137344360352 0.320893198251724243 -0.0862052664160728455
-1.03383827209472656 0.890708446502685547 5.49700021743774414 0.247588127851486206 -0.23553881049156189 0.939799010753631592
-2.07937717437744141 1.52790582180023193 1.71911442279815674 0.423156410455703735 0.209578961133956909 0.881484746932983398
-2.14546751976013184 1.40028631687164307 2.92439055442810059 0.43623700737953186 0.370026975870132446 -0.820230007171630859
-0.00300000002607703209 2.76636719703674316 4.1493229866027832 0.253577291965484619 -0.0122491177171468735 -0.967237591743469238
-1.41589713096618652 1.79328775405883789 2.88902425765991211 -0.356255501508712769 -0.33155447244644165 -0.873586714267730713
-2.20651340484619141 1.14613676071166992 2.63655900955200195 0.543400943279266357 0.406196236610412598 -0.734656453132629395
-1.66606175899505615 2.17856383323669434 2.78806900978088379 -0.147890001535415649 -0.545419931411743164 -0.825012564659118652
-2.22417569160461426 1.34095966815948486 2.83852219581604004 0.547682702541351318 0.468568384647369385 -0.693171977996826172
-1.73227763175964355 2.08777356147766113 2.89721274375915527 -0.15905529260635376 -0.590811431407928467 -0.790976226329803467
-2.04217910766601562 1.29122841358184814 2.90806460380554199 0.280503571033477783 0.54458463191986084 -0.79040837287902832
-2.46194219589233398 1.40171933174133301 2.19576215744018555 0.921836137771606445 0.300278931856155396 -0.245052456855773926
-1.28774535655975342 1.87278056144714355 2.00190305709838867 -0.317783385515213013 -0.915056884288787842 0.248363867402076721
-1.77843034267425537 2.12326860427856445 2.87508940696716309 -0.0778819024562835693 -0.644970893859863281 -0.760228276252746582
-2.45000362396240234 1.68997728824615479 1.65299630165100098 0.965691685676574707 -0.243905290961265564 -0.0891613364219665527
-0.00300000002607703209 4.89979314804077148 4.13753890991210938 0.951871395111083984 -0.299733251333236694 -0.0640373975038528442
-3.33176517486572266 5.49700021743774414 1.25562071800231934 -0.160425692796707153 0.669765055179595947 -0.725036799907684326
-1.965240478515625 2.34037661552429199 2.27555322647094727 0.187068283557891846 -0.977300643920898438 0.0994435399770736694
-4.59180736541748047 3.84241676330566406 5.49700021743774414 0.403567194938659668 0.226147875189781189 0.886561155319213867
-1.82530021667480469 1.59866058826446533 3.05123805999755859 0.106649145483970642 0.0438745841383934021 -0.993328332901000977
-1.59182417392730713 2.05241870880126953 2.87567019462585449 -0.343648195266723633 -0.550234615802764893 -0.76101762056350708
-0.00300023844465613365 0.629797935485839844 0.513080835342407227 0.990923166275024414 0.0464163497090339661 0.126161694526672363
-2.1604316234588623 1.31711959838867188 2.86778116226196289 0.374740481376647949 0.222450271248817444 -0.900047481060028076
-2.2197260856628418 1.92807471752166748 1.83805060386657715 0.642337203025817871 -0.433331191539764404 0.632160604000091553
-3.03421497344970703 2.84341239929199219 2.69580316543579102 -0.607112467288970947 0.724841833114624023 0.325605034828186035
-3.222015380859375 1.8847808837890625 5.49700021743774414 -0.398180067539215088 0.0637598708271980286 0.9150887131690979
-2.11963415145874023 1.42228877544403076 2.94727230072021484 0.406124144792556763 0.343355178833007812 -0.846859157085418701
-2.15681576728820801 1.65291309356689453 1.73829686641693115 0.473021715879440308 0.0188477858901023865 0.880849182605743408
-2.38959074020385742 1.59023451805114746 2.7782447338104248 0.778248071670532227 0.0944067984819412231 -0.620819926261901855
-4.27354717254638672 2.33566594123840332 5.49700021743774414 -0.6042441725730896 0.164345383644104004 0.779666781425476074
-2.44280695915222168 1.52931177616119385 2.67686605453491211 0.873155534267425537 0.171538859605789185 -0.45626068115234375
-2.6031196117401123 1.62433600425720215 5.49699974060058594 -0.238897114992141724 -0.0104945078492164612 0.970988273620605469
-1.74619007110595703 1.17642545700073242 2.84011530876159668 -0.149747371673583984 0.703685760498046875 -0.694551765918731689
-2.14742612838745117 2.2785794734954834 2.45410537719726562 0.452746331691741943 -0.881035923957824707 -0.1371002197265625
-1.70799660682678223 1.88609111309051514 3.00309205055236816 -0.186130672693252563 -0.303724795579910278 -0.934401750564575195
-1.756630539894104 1.39596974849700928 2.99281692504882812 -0.105843663215637207 0.291110008955001831 -0.950816512107849121
-1.78801500797271729 1.96051669120788574 2.98468685150146484 -0.0735844820737838745 -0.441200494766235352 -0.894386649131774902
-5.49700021743774414 0.723394870758056641 2.9037327766418457 -0.957409143447875977 -0.255129367113113403 0.135191142559051514
-1.96847164630889893 2.18502902984619141 1.91725969314575195 0.159630611538887024 -0.771152794361114502 0.616312742233276367
-2.22289109230041504 1.61569595336914062 2.93785548210144043 0.5286407470703125 0.0588816292583942413 -0.846801042556762695
-2.46845245361328125 1.58941102027893066 2.6456453800201416 0.795317947864532471 0.0980421528220176697 -0.59821164608001709
-1.76465296745300293 1.20280969142913818 1.84753358364105225 -0.0601227395236492157 0.69451296329498291 0.716963768005371094
-1.76093733310699463 1.39649176597595215 2.99364137649536133 -0.0516688749194145203 0.110009878873825073 -0.992586612701416016
-2.00382900238037109 2.23458671569824219 2.71809792518615723 0.299160122871398926 -0.692002534866333008 -0.656989932060241699
-2.0376434326171875 5.49700021743774414 1.70819902420043945 0.729729175567626953 0.570224523544311523 -0.377278894186019897
-2.1115725040435791 2.15304446220397949 2.77082061767578125 0.402441114187240601 -0.707185149192810059 -0.581317663192749023
-1.65339875221252441 1.83235728740692139 3.00539517402648926 -0.269581198692321777 -0.235444888472557068 -0.933751463890075684
-5.02235984802246094 5.49700021743774414 0.973544597625732422 -0.245718002319335938 0.908015072345733643 0.33931007981300354
-3.59001255035400391 -0.334293067455291748 0.74832528829574585 0.356530070304870605 0.354029595851898193 -0.864609360694885254
-2.05979251861572266 2.22051644325256348 2.7105402946472168 0.311390876770019531 -0.809572696685791016 -0.497622013092041016
-2.2767937183380127 1.88845932483673096 2.85175514221191406 0.613064289093017578 -0.313544332981109619 -0.725149750709533691
-3.75826263427734375 1.78207242488861084 5.49700021743774414 0.698120236396789551 0.715478003025054932 0.0268220510333776474
-2.99453258514404297 2.85572218894958496 0.305389285087585449 -0.0771405398845672607 0.980824112892150879 -0.178978711366653442
-1.96764397621154785 1.92169690132141113 2.99201059341430664 0.198936820030212402 -0.373358607292175293 -0.906105637550354004
-5.49700021743774414 5.38010120391845703 4.26113319396972656 -0.784784853458404541 -0.123930275440216064 0.607251226902008057
-2.39040374755859375 2.40227317810058594 5.49700021743774414 0.431197702884674072 -0.397792577743530273 0.809833049774169922
-1.50853586196899414 2.04215455055236816 1.88295829296112061 -0.0737135857343673706 0.35930103063583374 0.930305957794189453
-3.86965155601501465 4.31809902191162109 0.586562037467956543 0.364150047302246094 -0.640094339847564697 0.676516056060791016
-2.22297930717468262 1.57670462131500244 1.78358244895935059 0.0563383959233760834 0.763052105903625488 0.643876910209655762
-1.79729318618774414 1.42983114719390869 3.01065731048583984 -0.0261831358075141907 0.285383015871047974 -0.958055853843688965
-2.29174709320068359 1.33164536952972412 2.76813817024230957 0.645071148872375488 0.495180130004882812 -0.581962108612060547
-5.23843193054199219 0.288992881774902344 0.00300000002607703209 -0.644938349723815918 -0.750064849853515625 -0.146483063697814941
-2.40144228935241699 2.02639651298522949 2.54933953285217285 0.659554719924926758 -0.522704601287841797 -0.54015505313873291
-2.12213921546936035 2.18962240219116211 2.71457529067993164 0.394556224346160889 -0.771759033203125 -0.498711824417114258
-1.67680525779724121 2.00724267959594727 5.49700021743774414 0.666034877300262451 -0.432511210441589355 0.607726514339447021
-4.60474491119384766 5.49700021743774414 1.25333237648010254 -0.315918713808059692 0.359109550714492798 0.878200232982635498
-1.62104284763336182 1.96304512023925781 2.94448637962341309 -0.325399994850158691 -0.418998181819915771 -0.847676455974578857
-0.00300000002607703209 2.9480140209197998 2.07611179351806641 0.240054771304130554 -0.88034290075302124 -0.409108906984329224
-2.1814424991607666 1.50263726711273193 2.94271302223205566 0.489241123199462891 0.217480778694152832 -0.844597697257995605
-2.30776000022888184 2.50819683074951172 1.65299630165100098 0.687056422233581543 -0.720657765865325928 -0.0927685797214508057
-2.66821646690368652 1.84371495246887207 0.0193142294883728027 0.382068783044815063 -0.923922836780548096 0.0197492614388465881
-5.49700021743774414 2.63104867935180664 4.51442575454711914 -0.623672187328338623 -0.493643790483474731 0.606093049049377441
-1.7677767276763916 1.11651110649108887 2.77434587478637695 0.0466199666261672974 0.469605505466461182 -0.881644606590270996
-2.04128456115722656 1.86272919178009033 2.99449467658996582 0.28135448694229126 -0.298145711421966553 -0.912112295627593994
-2.03458690643310547 1.88473367691040039 2.98930931091308594 0.303003311157226562 -0.257364571094512939 -0.917579710483551025
-3.28709197044372559 5.49700021743774414 4.39607715606689453 -0.120254285633563995 0.88557124137878418 -0.4486674964427948
-2.05097699165344238 2.00298571586608887 2.92809295654296875 0.309614896774291992 -0.435677528381347656 -0.845176756381988525
-2.08990144729614258 1.88573956489562988 2.96925640106201172 0.382580399513244629 -0.235049188137054443 -0.893523514270782471
-1.17191672325134277 2.31576251983642578 5.49700021743774414 0.209511891007423401 0.201831772923469543 0.956749200820922852
-2.0368964672088623 1.06173694133758545 2.63576340675354004 0.407672852277755737 0.493837237358093262 -0.768067479133605957
-0.00300000002607703209 4.4126734733581543 3.02862358093261719 0.561262428760528564 0.808166146278381348 0.178470432758331299
-3.41015625 2.72679233551025391 2.13585376739501953 -0.812815845012664795 0.512900888919830322 -0.276157945394515991
-1.84744131565093994 2.35606217384338379 2.37308812141418457 0.0259102229028940201 -0.998983502388000488 -0.0368868745863437653
-2.2559809684753418 1.59658479690551758 2.91230487823486328 0.603869080543518066 0.100600823760032654 -0.790709614753723145
-1.87128973007202148 1.33512187004089355 2.96879744529724121 0.0422250181436538696 0.487048804759979248 -0.872353434562683105
-4.56083488464355469 3.55487918853759766 0.0101886987686157227 0.924659430980682373 0.359027981758117676 -0.126901105046272278
-4.99691009521484375 5.49700021743774414 3.71124601364135742 0.762672126293182373 0.464283496141433716 -0.450302183628082275
-2.18390297889709473 1.24810922145843506 2.79476380348205566 0.517326474189758301 0.580284833908081055 -0.629001498222351074
-1.93913531303405762 1.28591132164001465 2.93181848526000977 0.153962090611457825 0.550289511680603027 -0.82065659761428833
-2.3757326602935791 1.9289548397064209 2.71433377265930176 0.774005651473999023 -0.387940704822540283 -0.500416994094848633
-0.00300000002607703209 4.02728033065795898 0.133342504501342773 0.783705711364746094 -0.21007634699344635 0.584528267383575439
-1.20729923248291016 1.53697752952575684 1.65299630165100098 0.0913144946098327637 -0.596368134021759033 -0.797500312328338623
-5.49700021743774414 3.25703740119934082 4.02530431747436523 -0.847199916839599609 0.367814570665359497 0.383360564708709717
-2.1788642406463623 1.55829215049743652 2.95712471008300781 0.467122018337249756 0.151219636201858521 -0.871165633201599121
-1.71997261047363281 1.93735814094543457 2.98545265197753906 -0.179805189371109009 -0.412261664867401123 -0.893146336078643799
-4.49506378173828125 3.34285807609558105 1.68785309791564941 0.678725004196166992 0.346964269876480103 -0.647262036800384521
-2.26761913299560547 2.05002641677856445 1.65299630165100098 -0.3968544602394104 0.487976521253585815 -0.77742236852645874
-2.02203559875488281 1.90238726139068604 2.98665475845336914 0.278937160968780518 -0.357369601726531982 -0.891336619853973389
-1.83151721954345703 1.52287554740905762 3.03960490226745605 -0.00119627092499285936 0.23022124171257019 -0.973137557506561279
-2.27834606170654297 1.39861595630645752 2.82801103591918945 0.610624194145202637 0.380539953708648682 -0.694497942924499512
-1.98944687843322754 2.22962069511413574 1.98474931716918945 0.33881765604019165 -0.899745464324951172 0.275065034627914429
-1.50867366790771484 4.6587677001953125 5.49700021743774414 0.606594204902648926 0.491718977689743042 0.624704718589782715
-1.54074263572692871 1.80253267288208008 2.96791887283325195 -0.446793019771575928 -0.202364027500152588 -0.871449828147888184
-0.00300000002607703209 4.86183738708496094 0.768228054046630859 0.522253215312957764 -0.258084386587142944 -0.812800109386444092
-2.62628269195556641 1.98423635959625244 1.26539433002471924 0.887914538383483887 -0.308107972145080566 -0.341580480337142944
-1.83862066268920898 1.80326259136199951 3.04053354263305664 0.0112072359770536423 -0.215128809213638306 -0.97652137279510498
-1.2905580997467041 2.1643226146697998 1.65299630165100098 0.946758091449737549 0.0634666085243225098 -0.315628260374069214
-5.49700021743774414 3.67852330207824707 2.94080495834350586 -0.813807010650634766 0.0804565548896789551 -0.575539350509643555
-4.44500398635864258 1.45095145702362061 5.49700021743774414 -0.0789719223976135254 -0.850718379020690918 0.519655466079711914
-0.00300000002607703209 1.87493181228637695 3.59659481048583984 0.745346367359161377 0.227212458848953247 -0.626764178276062012
-0.00300023844465613365 3.90585803985595703 4.78199481964111328 0.686683535575866699 0.698358774185180664 -0.201892748475074768
-2.11537981033325195 1.64961934089660645 2.99773383140563965 0.406367480754852295 0.0295162517577409744 -0.913232922554016113
-2.96247363090515137 3.84940147399902344 3.30299234390258789 0.858964800834655762 0.506346762180328369 -0.0761077404022216797
-2.16507458686828613 1.94770658016204834 2.90447258949279785 0.461943179368972778 -0.404061257839202881 -0.789520740509033203
-1.85122358798980713 1.11317348480224609 1.9398496150970459 -0.545334398746490479 -0.0409386307001113892 0.837218284606933594
-2.30254220962524414 1.40527915954589844 2.80783176422119141 0.658528685569763184 0.365574121475219727 -0.657796025276184082
-1.76053845882415771 2.19807720184326172 2.79315543174743652 -0.128530234098434448 -0.774041056632995605 -0.619951963424682617
-1.32163560390472412 2.05152797698974609 2.59612631797790527 -0.553277015686035156 -0.540392935276031494 -0.633924305438995361
-2.4656834602355957 1.65459072589874268 2.05515432357788086 0.905790627002716064 0.0185342803597450256 0.42332005500793457
-2.14017748832702637 1.5448145866394043 2.97490572929382324 0.421546518802642822 0.156640082597732544 -0.893175482749938965
-2.14899468421936035 2.05706405639648438 2.84180188179016113 0.343921869993209839 -0.527186095714569092 -0.777040958404541016
-1.50830185413360596 1.70761942863464355 2.96480727195739746 -0.481700718402862549 -0.0639332979917526245 -0.87400054931640625
-1.90653753280639648 2.35206270217895508 2.40132641792297363 0.562841892242431641 -0.787685871124267578 0.250519514083862305
-2.20325708389282227 1.59926748275756836 1.7679513692855835 0.54220879077911377 0.104220747947692871 0.833755254745483398
-1.43879127502441406 1.85499036312103271 2.88849687576293945 -0.59133678674697876 -0.265118777751922607 -0.761598825454711914
-3.51440215110778809 5.49700021743774414 1.43200719356536865 0.598354518413543701 0.668430745601654053 0.441782981157302856
-1.29551982879638672 2.05968427658081055 1.65299654006958008 0.638912737369537354 -0.370674848556518555 -0.674085080623626709
-2.18981337547302246 2.17875027656555176 2.66706323623657227 0.538841426372528076 -0.676907539367675781 -0.501444041728973389
-1.86424577236175537 1.39947044849395752 3.00017285346984863 0.036920938640832901 0.40011298656463623 -0.915721774101257324
-2.14744806289672852 2.23635101318359375 2.60317230224609375 0.422184079885482788 -0.828917384147644043 -0.366955876350402832
-2.36449766159057617 1.94606399536132812 2.71805334091186523 0.73172372579574585 -0.4180641770362854 -0.538333356380462646
-2.27526354789733887 2.20462274551391602 2.3412327766418457 0.727075099945068359 -0.654885947704315186 -0.20612180233001709
-2.33895611763000488 2.12288403511047363 2.51031398773193359 0.70029979944229126 -0.680485427379608154 -0.215684682130813599
-1.95005917549133301 2.20852231979370117 2.77481961250305176 0.135550200939178467 -0.774227023124694824 -0.61822211742401123
-0.00300071528181433678 0.521620273590087891 1.31019210815429688 0.651607394218444824 -0.178080692887306213 -0.737356781959533691
-2.06603550910949707 1.95232105255126953 2.95009803771972656 0.261266767978668213 -0.299182772636413574 -0.917730569839477539
-1.86140692234039307 2.33210873603820801 2.17739558219909668 0.127001211047172546 -0.972200334072113037 -0.196716338396072388
-2.14789414405822754 1.95966684818267822 2.90801715850830078 0.444683581590652466 -0.422697722911834717 -0.7896728515625
-2.26612091064453125 1.83604729175567627 2.88129591941833496 0.605309784412384033 -0.237311616539955139 -0.759791553020477295
-5.49700021743774414 5.4925994873046875 4.52398490905761719 -0.622027039527893066 -0.149741068482398987 -0.76854407787322998
-4.28204917907714844 -0.217645406723022461 0.00300000002607703209 -0.026987079530954361 0.281209319829940796 -0.959266901016235352
-2.14533138275146484 2.24674201011657715 2.13701033592224121 0.438232183456420898 -0.852290451526641846 0.285575807094573975
-3.36386442184448242 5.49700021743774414 1.64885246753692627 -0.354952454566955566 0.919354856014251709 -0.169691711664199829
-5.49700021743774414 4.46334123611450195 0.488106966018676758 -0.74677586555480957 -0.298106491565704346 0.594523608684539795
-1.81979835033416748 2.20409607887268066 2.79308724403381348 0.0532484240829944611 -0.731511235237121582 -0.67974698543548584
-2.46342945098876953 1.64102435111999512 2.66524195671081543 0.888764142990112305 0.020702773705124855 -0.4578971266746521
-4.22805309295654297 3.47813153266906738 3.41586112976074219 -0.679418802261352539 -0.0209279917180538177 0.733452200889587402
-3.80705618858337402 3.34137439727783203 3.3309638500213623 0.66177898645401001 0.195261895656585693 0.723824203014373779
-2.27680087089538574 1.21017134189605713 2.64816069602966309 0.652392983436584473 0.64268261194229126 -0.401674807071685791
-0.00300000002607703209 5.15426969528198242 3.44210124015808105 0.735009551048278809 -0.0685018151998519897 -0.674587666988372803
-1.27827763557434082 1.86993098258972168 2.70077657699584961 -0.610042452812194824 -0.361648440361022949 -0.705023825168609619
-3.04143500328063965 1.65668737888336182 5.49700021743774414 0.79607081413269043 0.574717462062835693 0.189660400152206421
-2.2587740421295166 1.19589471817016602 2.65204763412475586 0.609409451484680176 0.690617203712463379 -0.389445900917053223
-5.49700021743774414 3.48937296867370605 3.759429931640625 -0.605600059032440186 0.681336402893066406 -0.411131620407104492
-2.08130574226379395 1.30074405670166016 2.89883995056152344 0.304476380348205566 0.245099917054176331 -0.920445561408996582
-2.42620658874511719 1.30427956581115723 2.4482569694519043 0.840738892555236816 0.525489985942840576 -0.130454599857330322
-3.35477185249328613 4.69543552398681641 5.49700021743774414 -0.326925098896026611 0.655925571918487549 0.680353760719299316
-2.26362514495849609 1.51560437679290771 2.88994026184082031 0.621321678161621094 0.199835658073425293 -0.757644414901733398
-5.49700021743774414 0.582213401794433594 1.92214369773864746 -0.950322747230529785 -0.288387417793273926 -0.117129802703857422
-1.66254150867462158 2.04877853393554688 2.90733575820922852 -0.246382027864456177 -0.558982551097869873 -0.791728794574737549
-4.28986358642578125 5.49700021743774414 1.57127130031585693 0.6727256178855896 0.739692568778991699 0.0171789918094873428
-2.50540804862976074 1.85454392433166504 2.42182111740112305 0.958915829658508301 -0.270843178033828735 -0.0844063311815261841
-4.22952365875244141 2.48685359954833984 2.94149637222290039 0.89530569314956665 -0.292223125696182251 -0.33620452880859375
-1.70303046703338623 2.19883513450622559 2.77692103385925293 0.0270626824349164963 -0.564565002918243408 -0.824944853782653809
-2.50124573707580566 1.8749549388885498 2.39565658569335938 0.946822881698608398 -0.310431778430938721 -0.0846085697412490845
-5.41456890106201172 1.89169430732727051 5.49700021743774414 0.16424243152141571 -0.982709288597106934 0.08548002690076828
-4.07324838638305664 1.83873391151428223 5.49700021743774414 0.557492613792419434 -0.781535148620605469 0.280008554458618164
-1.59498393535614014 1.73133599758148193 3.00380396842956543 -0.153128266334533691 -0.0791492313146591187 -0.985031545162200928
-2.46473240852355957 1.49537980556488037 2.10560464859008789 0.91721189022064209 0.186195090413093567 0.352212607860565186
-5.45781087875366211 5.49700021743774414 4.89559650421142578 0.339089781045913696 0.940660953521728516 -0.0132335005328059196
-2.04735875129699707 1.42160308361053467 2.97613620758056641 0.298333138227462769 0.334767758846282959 -0.893827676773071289
-4.75443506240844727 -0.708145856857299805 5.49700021743774414 -0.523145437240600586 -0.240769356489181519 0.817526102066040039
-1.83931171894073486 1.29341399669647217 2.9445500373840332 -0.00983738340437412262 0.53072124719619751 -0.847489356994628906
-2.09779977798461914 1.53726601600646973 2.99219608306884766 0.36478656530380249 0.173555582761764526 -0.91477280855178833
-2.18642830848693848 2.17552089691162109 2.67624211311340332 0.493796408176422119 -0.749489426612854004 -0.440943062305450439
-1.61480498313903809 1.47598016262054443 2.98646950721740723 -0.332987666130065918 0.290745764970779419 -0.896987199783325195
-2.4362647533416748 1.33299434185028076 2.48599624633789062 0.857171893119812012 0.482005059719085693 -0.181459277868270874
-1.85955429077148438 1.24196481704711914 2.90785408020019531 0.0203103013336658478 0.610319554805755615 -0.791894912719726562
-2.41789913177490234 1.64486980438232422 2.74516153335571289 0.596949577331542969 -0.0818784236907958984 -0.798089683055877686
-2.30791735649108887 1.23032748699188232 2.63028287887573242 0.661588907241821289 0.625640630722045898 -0.41336899995803833
-4.88076400756835938 5.49700021743774414 5.46904373168945312 0.655158877372741699 0.700237274169921875 -0.283609956502914429
-2.08483195304870605 2.13450765609741211 2.80744528770446777 0.342231214046478271 -0.672989606857299805 -0.655715465545654297
-2.21620416641235352 1.47720563411712646 2.91283822059631348 0.551670372486114502 0.272068142890930176 -0.78844064474105835
-2.1922609806060791 1.16107070446014404 2.67968106269836426 0.517660796642303467 0.724072933197021484 -0.455791294574737549
-0.712962865829467773 2.34866499900817871 0.00300000002607703209 0.917724490165710449 -0.0822313800454139709 -0.388612657785415649
-1.95450758934020996 1.13496267795562744 2.79017019271850586 0.178134381771087646 0.76364290714263916 -0.620578527450561523
-1.33794569969177246 1.58480608463287354 2.82541441917419434 -0.546693682670593262 0.0822684168815612793 -0.833281397819519043
-2.13520908355712891 2.63919281959533691 0.216727674007415771 -0.876294314861297607 -0.197764575481414795 0.439314812421798706
-1.91007113456726074 1.8935009241104126 3.01149320602416992 0.192880019545555115 -0.19667498767375946 -0.961309731006622314
-1.88714277744293213 1.40308010578155518 1.71600675582885742 -0.267156779766082764 0.275380581617355347 0.923467814922332764
-1.79866063594818115 1.42992293834686279 1.70577359199523926 0.0306565016508102417 0.370498836040496826 0.928326904773712158
-2.39426159858703613 1.38440060615539551 2.04711365699768066 0.869233787059783936 0.105339571833610535 0.483048975467681885
-1.20791375637054443 1.83445382118225098 2.57040214538574219 -0.789782583713531494 -0.341732501983642578 -0.509374558925628662
-2.28622198104858398 1.42733895778656006 2.83600807189941406 0.629461169242858887 0.350317895412445068 -0.693582057952880859
-5.28442573547363281 2.96678805351257324 5.49700021743774414 0.265646070241928101 -0.808307051658630371 0.525425434112548828
-2.48193025588989258 1.91069686412811279 2.4597620964050293 0.923708438873291016 -0.357778042554855347 -0.136958569288253784
-4.65200948715209961 2.33871865272521973 0.00299976160749793053 -0.151392117142677307 -0.326317071914672852 -0.933058202266693115
-2.21590280532836914 1.80430865287780762 1.78917384147644043 0.82752227783203125 -0.239293888211250305 0.507883191108703613
-5.49700021743774414 3.34467816352844238 4.01118755340576172 -0.532349169254302979 0.479682177305221558 -0.697502255439758301
-2.08136796951293945 1.6429898738861084 3.01117253303527832 0.356671690940856934 0.0237040109932422638 -0.933929085731506348
-3.46347975730895996 2.7102503776550293 1.01755928993225098 -0.684561014175415039 0.446450948715209961 -0.576244473457336426
-1.88542211055755615 2.28284740447998047 2.66717863082885742 0.0673090294003486633 -0.887965559959411621 -0.454957902431488037
-2.51333069801330566 1.65108776092529297 2.53005647659301758 0.549388527870178223 0.335701197385787964 0.765164613723754883
-2.18208026885986328 2.00555658340454102 1.65299665927886963 0.384114325046539307 -0.293083697557449341 -0.875533103942871094
-4.43632078170776367 3.68772125244140625 3.94685578346252441 0.709969460964202881 -0.659964919090270996 -0.245743110775947571
-1.69239616394042969 1.96383368968963623 2.96671915054321289 -0.225649923086166382 -0.462119996547698975 -0.857628881931304932
-2.21939444541931152 1.76144194602966309 2.93417453765869141 0.447365760803222656 -0.212958455085754395 -0.868626832962036133
-1.6555560827255249 1.40924274921417236 2.9759976863861084 -0.128477782011032104 0.294113367795944214 -0.947095990180969238
-2.31819248199462891 5.49700021743774414 5.27144098281860352 0.175946354866027832 0.302966028451919556 0.936618685722351074
-2.52467870712280273 1.75 2.44006800651550293 0.983536839485168457 -0.123141370713710785 -0.132254689931869507
-2.07819056510925293 1.93070590496063232 2.95571589469909668 0.321077167987823486 -0.376033902168273926 -0.869199633598327637
-1.87219154834747314 1.78771424293518066 3.04289674758911133 0.0342913232743740082 -0.186164140701293945 -0.981920123100280762
-2.44427824020385742 1.92476224899291992 2.13430309295654297 0.43463858962059021 -0.773052334785461426 -0.462038218975067139
-2.00063896179199219 1.96716141700744629 1.75291478633880615 0.227766111493110657 -0.452328801155090332 0.862276792526245117
-4.39351081848144531 3.49483418464660645 4.17422056198120117 0.0305884908884763718 0.372522413730621338 -0.927518963813781738
-1.92189764976501465 2.3276524543762207 2.53956198692321777 0.122796714305877686 -0.953520476818084717 -0.27517208456993103
-3.49049997329711914 2.04282331466674805 0.00300000002607703209 0.372417867183685303 0.0373492352664470673 -0.927313327789306641
-2.49649906158447266 1.58115279674530029 2.57029008865356445 0.776052772998809814 -0.0672073140740394592 -0.627076864242553711
-0.00300000002607703209 2.2784724235534668 1.04616332054138184 0.674529075622558594 0.141193926334381104 -0.724620699882507324
-2.18884038925170898 1.50614631175994873 2.93938970565795898 0.490016639232635498 0.211177349090576172 -0.845746934413909912
-1.9173043966293335 2.30634593963623047 2.60672187805175781 0.13408312201499939 -0.928039610385894775 -0.347511500120162964
-4.40080451965332031 3.75472617149353027 3.30299210548400879 -0.79160541296005249 -0.0977198481559753418 -0.603168010711669922
-1.74982905387878418 2.01922249794006348 2.94805383682250977 0.0638167113065719604 -0.396471947431564331 -0.915826082229614258
-1.79353749752044678 3.66961550712585449 0.00299976160749793053 0.156803011894226074 -0.577567815780639648 -0.801141798496246338
-1.99815976619720459 2.28027176856994629 2.08171224594116211 0.248821139335632324 -0.873273730278015137 0.418904602527618408
-2.68088650703430176 3.98852109909057617 5.49700021743774414 0.304379492998123169 -0.125338286161422729 0.944268703460693359
-2.49399423599243164 1.89838218688964844 2.33440494537353516 0.918685257434844971 -0.355850696563720703 -0.1714286208152771
-5.49700021743774414 2.59618282318115234 4.5526423454284668 -0.903531789779663086 -0.380743920803070068 0.196632087230682373
-2.15024161338806152 2.05118131637573242 2.84589481353759766 0.44274488091468811 -0.568509936332702637 -0.693378329277038574
-4.04053354263305664 3.25926041603088379 3.30299234390258789 0.22809407114982605 0.425150007009506226 -0.875911295413970947
-1.58343327045440674 2.16684365272521973 1.95819151401519775 -0.186172157526016235 -0.946900844573974609 0.262142717838287354
-4.34299707412719727 -0.365400701761245728 0.74832528829574585 0.304253995418548584 -0.053928036242723465 -0.951063215732574463
-2.38818907737731934 1.91092848777770996 2.70804047584533691 0.792162597179412842 -0.354068636894226074 -0.49710547924041748
-1.29111588001251221 2.03868699073791504 2.53989744186401367 -0.631276488304138184 -0.546094536781311035 -0.55070030689239502
-0.00300000002607703209 -0.893457412719726562 4.03262567520141602 0.639519751071929932 -0.758723914623260498 0.123905211687088013
-2.15497493743896484 1.76667797565460205 2.97102832794189453 0.469761073589324951 -0.154504582285881042 -0.869167983531951904
-2.71774959564208984 4.71865367889404297 5.49699926376342773 0.240710228681564331 0.0840271562337875366 0.966952979564666748
-1.74818992614746094 2.32924175262451172 2.19085407257080078 -0.117171585559844971 -0.973075509071350098 0.198481932282447815
-0.00300000002607703209 1.49164891242980957 4.70565319061279297 0.878454208374023438 -0.439714610576629639 -0.187000587582588196
-2.15294694900512695 2.02955818176269531 2.86067795753479004 0.468562275171279907 -0.396325945854187012 -0.789541125297546387
-2.44482183456420898 1.80440998077392578 2.04508733749389648 0.880598306655883789 -0.195311307907104492 0.431740731000900269
-1.63942968845367432 1.68757855892181396 3.02258062362670898 -0.311622023582458496 -0.045943722128868103 -0.949094831943511963
-2.52445411682128906 1.54888558387756348 2.33292150497436523 0.984291613101959229 0.175900399684906006 0.0151388570666313171
-1.59738612174987793 1.80550539493560791 1.72400748729705811 0.145089387893676758 -0.588558852672576904 0.79532855749130249
-2.27565646171569824 1.99755239486694336 2.78588700294494629 0.681579649448394775 -0.383011400699615479 -0.623499393463134766
-2.51388716697692871 1.57578384876251221 2.50236868858337402 0.967230796813964844 0.112794488668441772 -0.227468624711036682
-1.71123623847961426 2.06589984893798828 1.80759668350219727 -0.195165365934371948 -0.598142802715301514 0.777261614799499512
-1.97355985641479492 1.30785715579986572 1.77730190753936768 0.204012125730514526 0.501439094543457031 0.840795993804931641
-1.64866006374359131 1.30981111526489258 2.92157530784606934 -0.279744952917098999 0.496348679065704346 -0.821815609931945801
-1.61142969131469727 2.05950736999511719 2.87943291664123535 -0.314741253852844238 -0.566853165626525879 -0.761324763298034668
-2.09199142456054688 1.34154093265533447 2.91985750198364258 0.352907001972198486 0.449563324451446533 -0.820578813552856445
-2.30877375602722168 1.89209771156311035 2.81939816474914551 0.674355030059814453 -0.340974926948547363 -0.654966831207275391
-2.49178814888000488 1.45363593101501465 2.47202515602111816 0.93555450439453125 0.303676724433898926 -0.180328190326690674
-1.3341444730758667 2.61880087852478027 0.00300000002607703209 0.595101416110992432 -0.143891379237174988 -0.790664076805114746
-2.24480628967285156 2.21635150909423828 2.2438809871673584 0.469237029552459717 -0.760016262531280518 0.449657559394836426
-2.20601511001586914 2.20053362846374512 2.60434269905090332 0.535475969314575195 -0.761255979537963867 -0.365725070238113403
-3.5203101634979248 5.49700021743774414 3.61789274215698242 0.271970540285110474 0.946840465068817139 0.171828806400299072
-1.96469604969024658 1.41084134578704834 2.99346280097961426 0.182854771614074707 0.358072280883789062 -0.915613651275634766
-2.27880334854125977 2.01055335998535156 2.77232933044433594 0.641205310821533203 -0.499843060970306396 -0.58224785327911377
-2.03781366348266602 2.28576827049255371 2.12231087684631348 0.28760606050491333 -0.880074858665466309 0.377824127674102783
-1.62840187549591064 0.759791076183319092 0.134662389755249023 0.131058380007743835 0.471671819686889648 0.871980130672454834
-1.27868461608886719 1.59406673908233643 2.75203251838684082 -0.595598995685577393 -0.026023009791970253 -0.802860379219055176
-0.00300000002607703209 2.0641634464263916 2.35206222534179688 0.98125159740447998 0.145316958427429199 -0.12660256028175354
-1.76990306377410889 1.03983533382415771 2.64452838897705078 0.0344076305627822876 0.770080387592315674 -0.637018322944641113
-1.50417184829711914 1.50090551376342773 2.94106030464172363 -0.44344678521156311 0.19578978419303894 -0.874654889106750488
-3.64900827407836914 0.583921372890472412 0.765498459339141846 0.982903242111206055 -0.184076771140098572 0.00411426182836294174
-2.49943661689758301 1.69854617118835449 2.5756683349609375 0.94411921501159668 -0.0735213160514831543 -0.32129979133605957
-2.31977391242980957 2.7846677303314209 5.49700021743774414 -0.139197856187820435 0.329411029815673828 0.933869838714599609
-2.30709266662597656 1.16237175464630127 2.46051025390625 0.717066168785095215 0.298756957054138184 -0.629730343818664551
-5.30624008178710938 5.49700021743774414 5.32537412643432617 0.085671648383140564 0.844560503959655762 0.528562068939208984
-2.488739013671875 1.53341448307037354 2.57010436058044434 0.924427509307861328 0.203397437930107117 -0.322588503360748291
-5.49700021743774414 1.45876073837280273 4.67261219024658203 -0.496552616357803345 0.782600462436676025 -0.375462353229522705
-5.49700021743774414 3.7250523567199707 0.959424972534179688 -0.437987059354782104 -0.77765887975692749 -0.451014399528503418
-2.10104155540466309 2.10354399681091309 2.8296353816986084 0.356496155261993408 -0.628503978252410889 -0.691298246383666992
-2.34557199478149414 1.98600161075592041 2.71108055114746094 0.731607556343078613 -0.465637028217315674 -0.497928321361541748
-2.84676074981689453 1.97471833229064941 5.49700021743774414 -0.303136050701141357 0.09253711998462677 0.948443770408630371
-4.34929609298706055 5.49700021743774414 0.345471858978271484 0.460974007844924927 0.887311816215515137 0.013443303294479847
-2.4728548526763916 1.47474908828735352 2.14317059516906738 0.909014284610748291 0.268982976675033569 0.318341493606567383
-2.25467085838317871 1.33000826835632324 2.80448198318481445 0.596611917018890381 0.459705531597137451 -0.657818377017974854
-3.93173456192016602 0.453070670366287231 0.74832528829574585 -0.86111825704574585 -0.124057576060295105 -0.493036627769470215
-4.3260040283203125 5.49700021743774414 4.84052944183349609 -0.185510501265525818 0.375518471002578735 -0.908059298992156982
