ply
format ascii 1.0
element vertex 376
property float x
property float y
property float z
property float nx
property float ny
property float nz
end_header
-5.49700021743774414 2.31510615348815918 3.67010903358459473 -0.737666010856628418 0.0235948078334331512 -0.674753427505493164
-5.49699974060058594 0.943168759346008301 4.14261293411254883 -0.872451126575469971 -0.372359573841094971 -0.316508114337921143
-5.49700021743774414 1.34879016876220703 3.12654519081115723 -0.801104128360748291 -0.122026905417442322 -0.585953593254089355
-5.49700021743774414 1.27548038959503174 2.51154899597167969 -0.63357090950012207 -0.323125571012496948 -0.702977836132049561
-4.94476413726806641 2.78060770034790039 0.00300000002607703209 -0.314563930034637451 0.175398051738739014 -0.932890713214874268
-5.49700021743774414 1.32453155517578125 2.72450947761535645 -0.775536060333251953 -0.174774542450904846 -0.606628119945526123
-0.00300000002607703209 4.88494682312011719 5.22813749313354492 0.886670112609863281 0.456915915012359619 -0.071020469069480896
-5.49700021743774414 2.26601505279541016 5.04717636108398438 -0.985680639743804932 -0.0491689182817935944 -0.161295235157012939
-4.42659282684326172 5.49700021743774414 2.53338146209716797 -0.352941632270812988 0.633559465408325195 -0.688501715660095215
-3.88765859603881836 2.98505401611328125 3.30299210548400879 -0.36090552806854248 0.192686691880226135 -0.912479579448699951
-4.37417984008789062 5.49700021743774414 3.46817255020141602 -0.492336183786392212 0.725600063800811768 -0.480738610029220581
-2.80887246131896973 5.49700021743774414 2.43536663055419922 0.0845162272453308105 0.70670396089553833 -0.702443301677703857
-0.00300000002607703209 1.57477569580078125 5.02501344680786133 0.973412632942199707 -0.196109980344772339 -0.118358410894870758
-2.88414645195007324 2.86576700210571289 0.00300047686323523521 0.140031188726425171 0.086084417998790741 -0.986397862434387207
-0.00300023844465613365 -0.0935916900634765625 4.84205150604248047 0.65029674768447876 -0.744126021862030029 -0.152939766645431519
-5.49699926376342773 2.75500154495239258 4.68465232849121094 -0.973661243915557861 0.0412937402725219727 -0.224228829145431519
-5.49700021743774414 0.946026325225830078 0.995919704437255859 -0.59759974479675293 -0.305313467979431152 -0.74138939380645752
-0.00300023844465613365 1.03427231311798096 1.31581878662109375 0.591428399085998535 -0.31167912483215332 -0.743685781955718994
-1.13388276100158691 5.49700021743774414 5.44108390808105469 0.715457379817962646 0.698624312877655029 -0.00669528916478157043
-0.00300000002607703209 1.73337364196777344 3.13350701332092285 0.750656306743621826 -0.0798466205596923828 -0.65585029125213623
-3.37397646903991699 2.73801517486572266 0.276846766471862793 -0.267424315214157104 0.0595916137099266052 -0.961734414100646973
-3.02798891067504883 5.49700021743774414 4.57582664489746094 0.205710083246231079 0.92630457878112793 -0.315663158893585205
-5.49699974060058594 3.39032244682312012 5.12020397186279297 -0.965186715126037598 0.227516889572143555 -0.129037395119667053
-0.00300000002607703209 2.9894263744354248 3.76945590972900391 0.710162222385406494 0.377553045749664307 -0.594241797924041748
-0.00300000002607703209 3.77046513557434082 3.08234214782714844 0.670011401176452637 0.320945620536804199 -0.669386804103851318
-1.83995175361633301 5.49700069427490234 3.59862518310546875 0.160529643297195435 0.884387612342834473 -0.438279330730438232
-0.00300000002607703209 5.13288640975952148 5.33714008331298828 0.697067022323608398 0.715669035911560059 -0.0437648557126522064
-0.00300023844465613365 1.76841616630554199 2.69857454299926758 0.745423316955566406 -0.107301704585552216 -0.657898485660552979
-0.00299976160749793053 2.708404541015625 3.97859907150268555 0.88555377721786499 -0.159948840737342834 -0.436131685972213745
-0.00299952318891882896 2.10490512847900391 3.59123682975769043 0.888719856739044189 -0.0118148811161518097 -0.458298444747924805
-0.00300000002607703209 0.514708518981933594 2.54616284370422363 0.71172642707824707 -0.413823485374450684 -0.567622840404510498
-1.14383375644683838 2.1612541675567627 1.65299558639526367 0.356541037559509277 -0.174899160861968994 -0.917762935161590576
-2.82074737548828125 5.49700021743774414 3.82025432586669922 0.15707087516784668 0.810871481895446777 -0.563751876354217529
-0.00300000002607703209 1.41616058349609375 4.24257373809814453 0.846644818782806396 -0.375499904155731201 -0.377084046602249146
-0.00300000002607703209 1.54221868515014648 5.00233936309814453 0.979436635971069336 -0.148296445608139038 -0.136792153120040894
-3.13576745986938477 5.49700021743774414 2.7255561351776123 -0.273930013179779053 0.616752803325653076 -0.73795551061630249
-0.622198104858398438 5.49699974060058594 2.67531037330627441 0.469941616058349609 0.676508069038391113 -0.567002356052398682
-1.41319799423217773 3.29061555862426758 0.00300000002607703209 0.362341940402984619 0.199659228324890137 -0.910408973693847656
-1.55634665489196777 4.62307405471801758 0.00300047686323523521 0.217256814241409302 0.47130507230758667 -0.854792952537536621
-1.75191497802734375 4.45405483245849609 0.00300000002607703209 0.24754844605922699 0.375707805156707764 -0.89306408166885376
-5.49700021743774414 3.70919895172119141 5.40743255615234375 -0.866107463836669922 0.49944615364074707 -0.0202822964638471603
-0.00299976160749793053 2.75142407417297363 4.90039873123168945 0.942877352237701416 0.209564298391342163 -0.258969247341156006
-5.49700021743774414 3.52920103073120117 4.08740043640136719 -0.725101947784423828 0.533085048198699951 -0.43594437837600708
-1.54518663883209229 5.49700021743774414 2.81914806365966797 0.365999907255172729 0.671481311321258545 -0.644326686859130859
-0.00300047686323523521 1.91998708248138428 5.29970169067382812 0.897434353828430176 -0.435012966394424438 -0.0733165815472602844
-5.49700021743774414 2.70114445686340332 4.90149974822998047 -0.931234538555145264 0.238065764307975769 -0.275911033153533936
-5.49700021743774414 4.90533876419067383 4.04991626739501953 -0.671183168888092041 0.579542458057403564 -0.462216019630432129
-0.00300000002607703209 -0.462616443634033203 3.19879984855651855 0.532430112361907959 -0.646643757820129395 -0.54623258113861084
-3.16219663619995117 5.49700021743774414 3.99772167205810547 0.169075310230255127 0.893617033958435059 -0.415766984224319458
-5.49700021743774414 5.25924777984619141 5.34798622131347656 -0.625862002372741699 0.779430866241455078 -0.0280054043978452682
-5.49700021743774414 0.690659284591674805 3.54674911499023438 -0.717153787612915039 -0.560076236724853516 -0.414734899997711182
-0.00300047686323523521 -0.367159605026245117 2.90777683258056641 0.566781044006347656 -0.665668368339538574 -0.485432654619216919
-5.49700021743774414 1.96038150787353516 5.20152378082275391 -0.994140028953552246 -0.0416869968175888062 -0.0997389182448387146
-0.778193473815917969 -0.595413684844970703 0.00300000002607703209 0.3667641282081604 -0.353135764598846436 -0.860685288906097412
-2.7839195728302002 5.49700021743774414 3.93018436431884766 0.0966873466968536377 0.800592958927154541 -0.591356456279754639
-5.49700021743774414 2.19860267639160156 3.86162471771240234 -0.838382720947265625 -0.292875975370407104 -0.45971524715423584
-5.49700021743774414 -0.487448215484619141 1.75216436386108398 -0.510397553443908691 -0.514962196350097656 -0.688700437545776367
-5.49700021743774414 4.96111345291137695 4.23474645614624023 -0.836380243301391602 0.456006914377212524 -0.30418047308921814
-0.00300023844465613365 -0.548585891723632812 2.94774270057678223 0.708310782909393311 -0.50761711597442627 -0.490531057119369507
-5.49700021743774414 2.71127009391784668 4.03926849365234375 -0.865314006805419922 0.0683159157633781433 -0.496552735567092896
-2.3656010627746582 2.47822451591491699 1.65299630165100098 0.157840996980667114 0.0993713885545730591 -0.982451796531677246
-0.0700922012329101562 -0.308053016662597656 0.00300000002607703209 0.512532293796539307 -0.335822910070419312 -0.790274381637573242
-5.49700021743774414 2.20438599586486816 5.1934661865234375 -0.97386634349822998 -0.189198240637779236 -0.125651955604553223
-1.44025290012359619 3.42203283309936523 0.00300047686323523521 0.308026105165481567 0.214940592646598816 -0.926779627799987793
-3.05090427398681641 2.99970102310180664 3.30299258232116699 -0.0624758191406726837 0.0711892396211624146 -0.995504319667816162
-5.49700021743774414 3.59218144416809082 4.50294589996337891 -0.817042648792266846 0.430963218212127686 -0.383030086755752563
-5.01636505126953125 5.49700021743774414 5.10469532012939453 -0.598923623561859131 0.794541120529174805 -0.0999744534492492676
-2.29359793663024902 5.49699974060058594 4.83154296875 0.0490000732243061066 0.969956040382385254 -0.238294541835784912
-2.97426986694335938 -0.436177492141723633 0.00300000002607703209 -0.0649898573756217957 -0.494586706161499023 -0.866695046424865723
-2.84809589385986328 2.96729373931884766 3.30299258232116699 0.253815561532974243 0.320970445871353149 -0.912444889545440674
-2.87235164642333984 5.49700021743774414 4.91062068939208984 0.0872261077165603638 0.985019862651824951 -0.148753225803375244
-2.1360328197479248 2.06868290901184082 2.8402559757232666 0.10762052983045578 -0.327857822179794312 -0.938577175140380859
-5.49700021743774414 0.640127182006835938 4.74946117401123047 -0.715139865875244141 -0.668405115604400635 -0.204473823308944702
-5.49700021743774414 0.0856890678405761719 4.78586816787719727 -0.796823561191558838 -0.579095661640167236 -0.172396227717399597
-5.49700021743774414 4.00063991546630859 4.57877111434936523 -0.89217376708984375 0.343298822641372681 -0.293550491333007812
-0.357723712921142578 -0.217436552047729492 0.00300000002607703209 0.34082987904548645 -0.371007323265075684 -0.863822042942047119
-2.31639528274536133 1.74540364742279053 2.85922741889953613 -0.174137115478515625 -0.250611484050750732 -0.952297329902648926
-5.49700021743774414 0.339081764221191406 2.05033326148986816 -0.565706551074981689 -0.45539325475692749 -0.687454044818878174
-2.57432985305786133 5.49700021743774414 4.84434986114501953 -0.213945090770721436 0.947557985782623291 -0.237405508756637573
-3.97798418998718262 3.32399201393127441 4.43891096115112305 -0.676274776458740234 -0.00843292009085416794 -0.736601173877716064
-0.00300047686323523521 3.88991141319274902 1.92027688026428223 0.455017656087875366 0.445210516452789307 -0.771198093891143799
-0.00300023844465613365 1.91278243064880371 2.00844883918762207 0.553319692611694336 0.0341224372386932373 -0.832269787788391113
-0.00300000002607703209 2.64563369750976562 5.16561317443847656 0.978547155857086182 0.144882112741470337 -0.146474003791809082
-0.00300000002607703209 1.75249981880187988 2.8271787166595459 0.704088270664215088 -0.0264579933136701584 -0.709619402885437012
-3.14517092704772949 5.49700069427490234 2.45115280151367188 -0.131758838891983032 0.614650428295135498 -0.777717471122741699
-0.00300023844465613365 2.09391045570373535 4.83023262023925781 0.974958300590515137 -0.0386697836220264435 -0.218999817967414856
-3.85012531280517578 3.39256453514099121 4.46561241149902344 -0.462848812341690063 0.599582195281982422 -0.652895212173461914
-4.11309051513671875 5.49700021743774414 2.92091536521911621 -0.310100346803665161 0.728655517101287842 -0.610654532909393311
-0.00300023844465613365 2.59519791603088379 5.44328975677490234 0.999132752418518066 -0.041284807026386261 -0.00541722169145941734
-1.07416820526123047 5.49700021743774414 5.01866722106933594 0.481489777565002441 0.86773991584777832 -0.123267918825149536
-3.29795050621032715 5.49700021743774414 4.44832324981689453 -0.385818541049957275 0.858219265937805176 -0.338531762361526489
-0.00300047686323523521 2.47567057609558105 4.06615352630615234 0.935030937194824219 0.0455285124480724335 -0.351630836725234985
-0.93766474723815918 5.49700021743774414 5.42474985122680664 0.630090951919555664 0.776418209075927734 -0.0126559007912874222
-5.49700021743774414 2.56809401512145996 3.60715246200561523 -0.765017449855804443 0.296733081340789795 -0.571574807167053223
-5.49700021743774414 0.451537609100341797 4.1065216064453125 -0.814831852912902832 -0.48263588547706604 -0.321110069751739502
-2.62647628784179688 1.8434906005859375 1.65299630165100098 0.177474141120910645 -0.299396812915802002 -0.937477707862854004
-5.49700021743774414 2.653656005859375 3.41274809837341309 -0.728314638137817383 -0.12471279501914978 -0.673798620700836182
-5.49700021743774414 1.73970711231231689 4.03473854064941406 -0.778245031833648682 -0.176659092307090759 -0.602599561214447021
-0.00300023844465613365 2.41533374786376953 3.17201447486877441 0.739693641662597656 -0.0852338150143623352 -0.667524158954620361
-0.00300023844465613365 3.08126449584960938 5.35326957702636719 0.969829916954040527 0.237357541918754578 -0.0555999577045440674
-3.26052570343017578 1.23528504371643066 0.00300000002607703209 -0.0168694797903299332 -0.135774806141853333 -0.990596115589141846
-5.49700021743774414 0.140340805053710938 4.94052743911743164 -0.837076008319854736 -0.517680108547210693 -0.176949411630630493
-5.49700021743774414 1.37860667705535889 2.91775059700012207 -0.621516168117523193 -0.401403903961181641 -0.672749996185302734
-2.47838020324707031 5.49699974060058594 5.41112565994262695 0.309995085000991821 0.950622498989105225 -0.0148290535435080528
-0.376221179962158203 5.49699974060058594 5.42528200149536133 0.750922799110412598 0.660283982753753662 -0.0118322763592004776
-5.49700021743774414 2.26186990737915039 4.38604259490966797 -0.922211408615112305 0.181384265422821045 -0.341505289077758789
-5.49700021743774414 4.29472017288208008 3.8985445499420166 -0.793034613132476807 0.485695719718933105 -0.367689758539199829
-5.49700021743774414 1.36324393749237061 4.74922466278076172 -0.910248935222625732 -0.347903698682785034 -0.224521413445472717
-4.15395259857177734 5.49700021743774414 2.64195632934570312 -0.487311124801635742 0.558632731437683105 -0.671161174774169922
-4.48637819290161133 0.447142690420150757 0.748325645923614502 -0.40960356593132019 -0.352420270442962646 -0.841442108154296875
-1.53857982158660889 1.94279015064239502 2.91649389266967773 0.336579322814941406 0.11090155690908432 -0.935101687908172607
-5.49700021743774414 -0.727482795715332031 3.52304196357727051 -0.664533615112304688 -0.649533748626708984 -0.369460403919219971
-0.00300000002607703209 1.93598496913909912 5.32407569885253906 0.986161231994628906 -0.161601841449737549 -0.0370246097445487976
-0.00300000002607703209 3.23637795448303223 4.00893783569335938 0.885888516902923584 0.0186385083943605423 -0.463523596525192261
-4.5743412971496582 0.457445502281188965 0.984100580215454102 -0.289627373218536377 -0.479381710290908813 -0.82843780517578125
-5.49700021743774414 2.43153905868530273 4.87217426300048828 -0.937058508396148682 -0.182244136929512024 -0.297839492559432983
-2.47226190567016602 5.49700021743774414 5.31461381912231445 0.209231749176979065 0.976957440376281738 -0.0421456433832645416
-0.00300023844465613365 1.6955493688583374 4.22627735137939453 0.789658784866333008 -0.460958212614059448 -0.404915511608123779
-1.54017770290374756 -0.538500070571899414 0.00299952318891882896 0.0685495957732200623 -0.435197412967681885 -0.897721648216247559
-4.05591821670532227 3.4236457347869873 4.44466876983642578 -0.304839432239532471 0.733252882957458496 -0.607793688774108887
-2.54909539222717285 5.49700021743774414 3.75426292419433594 0.161122292280197144 0.868492722511291504 -0.468785643577575684
-5.49700021743774414 4.68842983245849609 3.47269797325134277 -0.534203231334686279 0.596811115741729736 -0.598701357841491699
-2.97656631469726562 3.41106557846069336 3.30299234390258789 -0.142054334282875061 0.0366900525987148285 -0.989178657531738281
-3.33123350143432617 2.75127458572387695 1.5970531702041626 -0.321403294801712036 0.0378951467573642731 -0.946183860301971436
-3.02885341644287109 5.49699974060058594 3.94311261177062988 -0.0849640071392059326 0.931054234504699707 -0.354850918054580688
-5.49700021743774414 3.46243619918823242 3.77831721305847168 -0.656718015670776367 0.407743334770202637 -0.634402751922607422
-5.49700021743774414 1.43590247631072998 3.12992238998413086 -0.710358679294586182 -0.377388060092926025 -0.594111740589141846
-5.49700021743774414 2.45186948776245117 5.37710905075073242 -0.999254822731018066 -0.0183280855417251587 -0.0339685268700122833
-4.565948486328125 1.79251015186309814 0.00300047686323523521 -0.169963926076889038 -0.0528734214603900909 -0.984030842781066895
-5.13688564300537109 5.49700021743774414 3.63694977760314941 -0.490067005157470703 0.771093428134918213 -0.406508594751358032
-5.49700021743774414 0.856290102005004883 1.26930761337280273 -0.448788851499557495 -0.391206353902816772 -0.803458869457244873
-0.918437480926513672 2.78757190704345703 0.00300047686323523521 0.414801478385925293 0.110038883984088898 -0.903233706951141357
-0.00300000002607703209 1.32508659362792969 3.75618362426757812 0.762758314609527588 -0.233546927571296692 -0.603038668632507324
-3.04544401168823242 4.25910043716430664 2.19146323204040527 -0.162208527326583862 0.296674787998199463 -0.941101729869842529
-0.00300000002607703209 0.78976905345916748 4.94017791748046875 0.953136146068572998 -0.263035476207733154 -0.14947865903377533
-2.66825437545776367 3.28590774536132812 0.00300000002607703209 -0.0332759618759155273 0.285500884056091309 -0.957800567150115967
-5.49700021743774414 0.901369810104370117 4.99600505828857422 -0.925850152969360352 -0.325441241264343262 -0.192066311836242676
-4.89881753921508789 5.49700021743774414 4.79387426376342773 -0.550935089588165283 0.816152215003967285 -0.174258574843406677
-4.6946415901184082 1.66687667369842529 0.00300000002607703209 -0.406749755144119263 -0.18429100513458252 -0.894757747650146484
-2.63544106483459473 5.16639900207519531 0.00299952318891882896 -0.110931828618049622 0.413435190916061401 -0.903750777244567871
-0.00300023844465613365 4.15387058258056641 3.97534608840942383 0.727609813213348389 0.593499302864074707 -0.344009608030319214
-1.90696454048156738 5.49700021743774414 2.87091636657714844 0.264049649238586426 0.617978870868682861 -0.740526795387268066
-3.90207147598266602 2.93021011352539062 3.30299258232116699 -0.360227674245834351 0.339749634265899658 -0.868795812129974365
-4.25776004791259766 5.49700021743774414 4.60268497467041016 -0.333990305662155151 0.914427697658538818 -0.228631734848022461
-5.49700021743774414 2.10764741897583008 3.71299362182617188 -0.722959339618682861 -0.150171652436256409 -0.674372494220733643
-0.00300023844465613365 3.55573248863220215 4.22628879547119141 0.911499738693237305 0.212174743413925171 -0.352349430322647095
-0.582356452941894531 5.49700021743774414 3.46866273880004883 0.502293765544891357 0.692514002323150635 -0.517808198928833008
-0.00299976160749793053 2.54215359687805176 3.53139877319335938 0.877779901027679443 0.00161174463573843241 -0.479061424732208252
-5.49700021743774414 0.777579665184020996 3.69833087921142578 -0.780151546001434326 -0.347983956336975098 -0.519875705242156982
-5.49700069427490234 3.31898975372314453 5.12223291397094727 -0.989320099353790283 0.103626839816570282 -0.10250496119260788
-0.00300023844465613365 4.55887508392333984 4.09721851348876953 0.76201862096786499 0.555360138416290283 -0.333020567893981934
-0.00300000002607703209 2.02277708053588867 3.42272734642028809 0.82790219783782959 -0.240687578916549683 -0.506603837013244629
-3.62224268913269043 3.15913605690002441 4.28090047836303711 -0.562291979789733887 0.123522303998470306 -0.817661285400390625
-0.00300000002607703209 2.28822708129882812 5.08964824676513672 0.966979384422302246 0.213917136192321777 -0.138529315590858459
-2.6623990535736084 5.49700021743774414 3.41360378265380859 -0.0596355758607387543 0.807639062404632568 -0.58665388822555542
-5.49700021743774414 0.200899362564086914 4.50840234756469727 -0.583617150783538818 -0.765616655349731445 -0.270595937967300415
-0.00300000002607703209 3.25377225875854492 3.0043492317199707 0.616001248359680176 0.141383737325668335 -0.774953603744506836
-3.70045733451843262 3.01830101013183594 4.14995861053466797 -0.642020702362060547 0.194671019911766052 -0.741560935974121094
-0.00300023844465613365 2.81391692161560059 3.63044047355651855 0.857677638530731201 0.189741030335426331 -0.477898985147476196
-5.49700021743774414 0.95089268684387207 2.81150031089782715 -0.640836060047149658 -0.203081578016281128 -0.74032902717590332
-0.00300000002607703209 0.0303118228912353516 5.21297264099121094 0.717046856880187988 -0.694437503814697266 -0.0600034669041633606
-2.29053926467895508 5.49700021743774414 3.99106335639953613 0.37454184889793396 0.821840643882751465 -0.429297506809234619
-5.49700021743774414 1.63151025772094727 1.27872276306152344 -0.562570095062255859 -0.32329326868057251 -0.760918080806732178
-2.93062686920166016 5.49700021743774414 3.57879781723022461 -0.313022494316101074 0.766109764575958252 -0.561331272125244141
-0.00300047686323523521 4.29154491424560547 3.16784071922302246 0.587772011756896973 0.539897382259368896 -0.602523744106292725
-3.33920526504516602 2.77176618576049805 3.30299258232116699 -0.268218696117401123 0.0489564798772335052 -0.962113320827484131
-0.00300000002607703209 1.77777338027954102 4.99915504455566406 0.977430999279022217 -0.117400266230106354 -0.175629645586013794
-5.49700021743774414 1.21462416648864746 4.93899345397949219 -0.946858763694763184 -0.231744289398193359 -0.223053902387619019
-3.17001700401306152 5.49700021743774414 2.39807939529418945 -0.25328102707862854 0.563785433769226074 -0.786126375198364258
-1.35486400127410889 5.49700069427490234 2.33017134666442871 0.407588183879852295 0.640671432018280029 -0.650701165199279785
-5.49700021743774414 -0.930625438690185547 4.73498630523681641 -0.471487969160079956 -0.868075788021087646 -0.155381739139556885
-5.49700021743774414 0.274718284606933594 3.96901035308837891 -0.797053873538970947 -0.426825463771820068 -0.427229613065719604
-5.49700021743774414 1.96761810779571533 5.08196878433227539 -0.96256554126739502 -0.195703521370887756 -0.187530472874641418
-5.49700021743774414 3.92564845085144043 5.07322502136230469 -0.96891099214553833 0.22210732102394104 -0.108994878828525543
-0.327831745147705078 5.49699974060058594 3.43279910087585449 0.508651852607727051 0.754518449306488037 -0.414698988199234009
-1.07552289962768555 5.49699974060058594 4.94991016387939453 0.617069125175476074 0.776250004768371582 -0.129079863429069519
-0.00300000002607703209 4.39859342575073242 4.42264127731323242 0.90515744686126709 0.304153084754943848 -0.296952605247497559
-3.84308671951293945 5.49700021743774414 3.77595901489257812 -0.302925288677215576 0.805960297584533691 -0.508590459823608398
-2.89692544937133789 3.0802462100982666 3.30299210548400879 0.256110727787017822 0.00422139698639512062 -0.96663820743560791
-0.00299976160749793053 2.20901298522949219 4.78877925872802734 0.979950308799743652 -0.0161778144538402557 -0.198584213852882385
-0.00300000002607703209 2.6398470401763916 3.95714068412780762 0.847896397113800049 -0.173671767115592957 -0.500908970832824707
-0.00300000002607703209 2.16352272033691406 3.16916775703430176 0.702675282955169678 -0.259126484394073486 -0.662646889686584473
-5.49700021743774414 2.13722991943359375 4.6674494743347168 -0.919443130493164062 -0.0925562679767608643 -0.382174879312515259
-2.62182784080505371 5.49700021743774414 5.07316112518310547 0.200582191348075867 0.973618507385253906 -0.10878308117389679
-0.00300000002607703209 -0.529214859008789062 3.10135102272033691 0.542081475257873535 -0.720697760581970215 -0.432137042284011841
-1.5230567455291748 5.49700021743774414 4.49888992309570312 0.36845630407333374 0.855414986610412598 -0.364012628793716431
-1.59277164936065674 5.49699974060058594 2.60785722732543945 0.193727806210517883 0.764275729656219482 -0.615103363990783691
-0.420974254608154297 5.49700021743774414 3.96552634239196777 0.518038392066955566 0.785644471645355225 -0.338229209184646606
-0.00299976160749793053 3.90722274780273438 5.33381271362304688 0.971411347389221191 0.230907246470451355 -0.0551526099443435669
-3.93547272682189941 3.41013908386230469 4.46743059158325195 -0.451430439949035645 0.742504417896270752 -0.494871467351913452
-3.00065279006958008 5.49700021743774414 4.05468177795410156 -0.185073316097259521 0.901804029941558838 -0.390509158372879028
-0.00299952318891882896 3.82945013046264648 0.857707023620605469 0.434606939554214478 0.316159307956695557 -0.843303084373474121
-0.00300000002607703209 1.61212527751922607 0.870139598846435547 0.450431883335113525 -0.258630722761154175 -0.854529857635498047
-0.00299976160749793053 5.19614553451538086 3.02059721946716309 0.49441865086555481 0.651592850685119629 -0.575305938720703125
-3.41280746459960938 5.49699974060058594 5.30001497268676758 -0.205148264765739441 0.977553188800811768 -0.0479996725916862488
-2.98519587516784668 4.03538751602172852 3.30299234390258789 -0.0696432292461395264 0.474138617515563965 -0.877691507339477539
-5.49700021743774414 -0.789029121398925781 1.82768368721008301 -0.33315005898475647 -0.644443631172180176 -0.688261210918426514
-5.49700021743774414 0.443149328231811523 5.249542236328125 -0.751743555068969727 -0.656786620616912842 -0.0592696927487850189
-4.37554168701171875 5.49700021743774414 4.93213033676147461 -0.519712984561920166 0.840347707271575928 -0.153993844985961914
-5.49700021743774414 3.10196876525878906 4.98029422760009766 -0.897730588912963867 0.399948686361312866 -0.184718191623687744
-0.00299976160749793053 2.04462885856628418 2.06987595558166504 0.621948719024658203 -0.14986303448677063 -0.76858365535736084
-0.00300000002607703209 3.93327808380126953 2.9283294677734375 0.758085548877716064 0.161670252680778503 -0.631798207759857178
-5.49700021743774414 3.79176449775695801 0.820544242858886719 -0.394411802291870117 0.381538480520248413 -0.835983097553253174
-5.49700021743774414 1.45740628242492676 4.9549407958984375 -0.983006179332733154 -0.109727561473846436 -0.147168934345245361
-3.48327517509460449 3.12256193161010742 4.07094526290893555 0.165914088487625122 0.485717713832855225 -0.858225405216217041
-5.49700021743774414 2.38109064102172852 4.36181116104125977 -0.89107590913772583 0.129684790968894958 -0.434931755065917969
-5.49700021743774414 2.51915097236633301 3.22652602195739746 -0.810809075832366943 0.0891767963767051697 -0.578477442264556885
-3.28242921829223633 2.12690877914428711 0.00300000002607703209 0.0228657573461532593 -0.0679674297571182251 -0.997425496578216553
-0.00300000002607703209 0.444580793380737305 3.58265399932861328 0.724725186824798584 -0.478966951370239258 -0.495342344045639038
-1.98200666904449463 5.49700021743774414 4.31627130508422852 0.32772064208984375 0.832442343235015869 -0.446809768676757812
-4.74945640563964844 5.49700021743774414 4.77685356140136719 -0.710025370121002197 0.679858207702636719 -0.183457866311073303
-4.39117622375488281 -0.442310184240341187 0.986228227615356445 -0.413260936737060547 -0.499960392713546753 -0.761088013648986816
-0.848103046417236328 4.55336427688598633 0.00300000002607703209 0.342296481132507324 0.203857868909835815 -0.917210519313812256
-5.49700021743774414 0.150485992431640625 1.51893091201782227 -0.587714433670043945 -0.4602833092212677 -0.665380358695983887
-0.00300000002607703209 3.85287714004516602 3.40095186233520508 0.765628576278686523 0.363979130983352661 -0.530407488346099854
-0.00300023844465613365 4.32275390625 4.20981359481811523 0.808455407619476318 0.51209104061126709 -0.290108025074005127
-0.00299952318891882896 -0.0560107231140136719 2.12635612487792969 0.537356436252593994 -0.486089378595352173 -0.689177215099334717
-5.49700021743774414 0.61606597900390625 3.663421630859375 -0.71749502420425415 -0.371635764837265015 -0.589141547679901123
-5.49700021743774414 1.16812229156494141 1.80571365356445312 -0.50599062442779541 -0.446229219436645508 -0.738141536712646484
-3.43551921844482422 4.2517852783203125 3.30299210548400879 -0.224915757775306702 0.329940140247344971 -0.916816473007202148
-0.00300000002607703209 4.13659477233886719 2.62484288215637207 0.724426329135894775 0.402849346399307251 -0.559391558170318604
-0.978106021881103516 5.49700021743774414 4.7097010612487793 0.275795787572860718 0.939395427703857422 -0.203649029135704041
-0.00300000002607703209 1.83534431457519531 5.051605224609375 0.9647408127784729 -0.204094931483268738 -0.166193768382072449
-2.28513503074645996 1.72302448749542236 2.89034271240234375 0.352541923522949219 -0.399382948875427246 -0.846290409564971924
-1.09486567974090576 5.49700021743774414 4.54723691940307617 0.417367130517959595 0.872039794921875 -0.255638957023620605
-1.63514041900634766 5.49700021743774414 3.82669949531555176 0.130770757794380188 0.893128693103790283 -0.430372148752212524
-0.00300023844465613365 3.38238191604614258 4.61921167373657227 0.887303471565246582 0.369333624839782715 -0.276197850704193115
-0.00300023844465613365 2.22153067588806152 5.13602542877197266 0.968033671379089355 0.218196466565132141 -0.123697668313980103
-2.18755960464477539 1.61860430240631104 2.95986723899841309 0.172838181257247925 -0.0293993186205625534 -0.984511375427246094
-0.00299976160749793053 1.86787271499633789 4.0393218994140625 0.845312595367431641 -0.336755126714706421 -0.414780229330062866
-5.22417259216308594 1.60707974433898926 0.00299904635176062584 -0.297223806381225586 -0.044752124696969986 -0.953758478164672852
-1.90605354309082031 5.49700021743774414 2.55115246772766113 0.0576805844902992249 0.737269818782806396 -0.673131644725799561
-0.00300000002607703209 1.06965112686157227 4.92792606353759766 0.91961979866027832 -0.359452962875366211 -0.158407717943191528
-0.00299976160749793053 -0.765013217926025391 2.05725884437561035 0.556655168533325195 -0.494071453809738159 -0.667853593826293945
-4.56308889389038086 1.51236331462860107 0.00299952318891882896 -0.270666271448135376 -0.0544752627611160278 -0.961130678653717041
-1.55921685695648193 5.49700021743774414 4.81061172485351562 0.183531716465950012 0.959695637226104736 -0.212838903069496155
-5.49700021743774414 0.749413967132568359 4.94166851043701172 -0.772032201290130615 -0.610209226608276367 -0.177794724702835083
-1.36675822734832764 5.49700021743774414 5.24478816986083984 0.493784129619598389 0.867673218250274658 -0.057623155415058136
-2.02956438064575195 1.79660546779632568 3.01517105102539062 0.0804904773831367493 -0.110358349978923798 -0.9906272292137146
-5.49700021743774414 3.10142278671264648 3.59853625297546387 -0.753023326396942139 0.19468042254447937 -0.628534317016601562
-0.00300000002607703209 0.943165302276611328 5.44657754898071289 0.796818733215332031 -0.604191601276397705 -0.00569496816024184227
-5.49700021743774414 3.94890689849853516 5.44626760482788086 -0.779357731342315674 0.626547932624816895 -0.00626340880990028381
-5.49700021743774414 2.27633285522460938 5.06117534637451172 -0.982613027095794678 -0.035051099956035614 -0.182326942682266235
-3.47234964370727539 -0.239420607686042786 0.98742067813873291 -0.22751249372959137 -0.577088057994842529 -0.784351587295532227
-5.49700021743774414 4.5539402961730957 4.04128456115722656 -0.705545306205749512 0.531518340110778809 -0.468715399503707886
-2.16009855270385742 2.38473939895629883 1.65299630165100098 0.253204405307769775 -0.127677425742149353 -0.958950459957122803
-5.49700021743774414 2.5303184986114502 4.41509628295898438 -0.894915223121643066 -0.15094447135925293 -0.419931560754776001
-5.49700021743774414 3.34861850738525391 4.12289285659790039 -0.785103440284729004 0.378093421459197998 -0.490569025278091431
-3.34818434715270996 5.49700021743774414 3.94456911087036133 -0.299108237028121948 0.843979418277740479 -0.445233672857284546
-0.00300000002607703209 0.602652549743652344 4.80588054656982422 0.682086586952209473 -0.698140501976013184 -0.21761833131313324
-0.00299976160749793053 4.86698436737060547 4.71434831619262695 0.802932620048522949 0.557398438453674316 -0.211201727390289307
-3.41843461990356445 5.49700021743774414 2.07424545288085938 -0.126484155654907227 0.517267107963562012 -0.846425712108612061
-0.0376093387603759766 5.49700069427490234 0.518200397491455078 0.301561236381530762 0.552092492580413818 -0.777338206768035889
-0.00300000002607703209 2.14040422439575195 3.23811483383178711 0.794697582721710205 -0.258966892957687378 -0.548991680145263672
-1.76739084720611572 5.49700021743774414 5.19036102294921875 0.399413257837295532 0.91127467155456543 -0.100237354636192322
-0.00300000002607703209 1.44972920417785645 5.44657421112060547 0.993265926837921143 -0.115678906440734863 -0.0064158034510910511
-5.49700021743774414 4.62368965148925781 4.58150053024291992 -0.708730518817901611 0.648040235042572021 -0.2788277268409729
-0.00299976160749793053 3.87344789505004883 0.107446193695068359 0.465764552354812622 0.305282175540924072 -0.830581843852996826
-3.84258532524108887 5.49700021743774414 4.29095220565795898 -0.354499399662017822 0.879186928272247314 -0.318371742963790894
-0.00300000002607703209 3.89184713363647461 4.91414546966552734 0.77247697114944458 0.615856349468231201 -0.154920369386672974
-5.49700021743774414 4.17408514022827148 5.15491580963134766 -0.945025980472564697 0.308268576860427856 -0.109070673584938049
-0.00300023844465613365 3.9770653247833252 2.36695265769958496 0.630423963069915771 0.245194226503372192 -0.736508965492248535
-3.73166942596435547 2.95321869850158691 3.98530840873718262 -0.446254730224609375 0.155107662081718445 -0.881361603736877441
-5.49700069427490234 1.42124509811401367 3.28187251091003418 -0.792106270790100098 -0.133461207151412964 -0.595613777637481689
-5.49700021743774414 0.79602813720703125 5.37093830108642578 -0.93155592679977417 -0.362729132175445557 -0.0251225382089614868
-5.49700021743774414 3.38721537590026855 5.07888603210449219 -0.901970922946929932 0.406673938035964966 -0.145136982202529907
-5.45823526382446289 5.49700021743774414 4.20864152908325195 -0.663822531700134277 0.665921390056610107 -0.340423792600631714
-0.00300000002607703209 2.14445018768310547 4.24434900283813477 0.88788914680480957 0.137267500162124634 -0.439101964235305786
-5.49700021743774414 2.78382086753845215 4.76996803283691406 -0.968909621238708496 0.153176814317703247 -0.194296121597290039
-1.33906972408294678 5.49700021743774414 4.9995732307434082 0.323940306901931763 0.937566459178924561 -0.126616939902305603
-5.49700021743774414 2.92287039756774902 2.23198580741882324 -0.5711708664894104 0.134335443377494812 -0.80976402759552002
-0.00300000002607703209 2.91806387901306152 5.41979408264160156 0.970525085926055908 0.240193203091621399 -0.0197041314095258713
-1.30001091957092285 5.49699974060058594 2.79080462455749512 0.414640843868255615 0.736431777477264404 -0.534547626972198486
-5.49700021743774414 5.02010202407836914 4.78889179229736328 -0.74287712574005127 0.643719851970672607 -0.183734342455863953
-5.49700021743774414 4.23145580291748047 4.37336206436157227 -0.787485480308532715 0.471918225288391113 -0.396433919668197632
-4.21969938278198242 0.948205113410949707 0.00299952318891882896 -0.162479490041732788 -0.310454457998275757 -0.936599373817443848
-0.0558423995971679688 3.38028502464294434 0.00300000002607703209 0.465195387601852417 0.134168252348899841 -0.874981224536895752
-1.63738703727722168 5.49700021743774414 4.55843925476074219 0.368628889322280884 0.905332028865814209 -0.210918545722961426
-3.91134262084960938 3.85730600357055664 4.36208105087280273 -0.17878367006778717 0.759337246417999268 -0.625654339790344238
-5.25974082946777344 5.49700021743774414 4.24776506423950195 -0.699041068553924561 0.668918728828430176 -0.252763271331787109
-5.49699974060058594 0.891633749008178711 1.64697170257568359 -0.650287151336669922 -0.169559076428413391 -0.740524351596832275
-2.29562163352966309 5.49700021743774414 4.48706293106079102 0.0712735801935195923 0.915416121482849121 -0.396148145198822021
-0.00300000002607703209 2.94164085388183594 5.39056587219238281 0.900006532669067383 0.435084700584411621 -0.0262592453509569168
-3.95134472846984863 2.99170207977294922 4.15251398086547852 -0.33006247878074646 -0.0130857862532138824 -0.943868398666381836
-5.49700021743774414 4.41402149200439453 4.98275375366210938 -0.714145481586456299 0.686675071716308594 -0.135917440056800842
-0.00300000002607703209 3.33954811096191406 4.81668853759765625 0.958768665790557861 0.158423662185668945 -0.235933363437652588
-2.80466699600219727 2.91462063789367676 1.62988817691802979 -0.0676072612404823303 0.192684724926948547 -0.978928923606872559
-5.49700021743774414 2.3872833251953125 0.935757637023925781 -0.51962590217590332 0.0267000645399093628 -0.853976607322692871
-5.49700021743774414 5.32424259185791016 3.31991744041442871 -0.489572525024414062 0.740595817565917969 -0.460257112979888916
-0.00300000002607703209 5.39688873291015625 0.565591335296630859 0.51054757833480835 0.369020402431488037 -0.776637077331542969
-3.13785839080810547 2.81126165390014648 3.25592470169067383 -0.284966588020324707 0.338052421808242798 -0.896947383880615234
-5.49700021743774414 2.29088878631591797 5.06600189208984375 -0.923963308334350586 -0.333590447902679443 -0.187107577919960022
-2.86854171752929688 2.8948063850402832 3.28299641609191895 0.0426629111170768738 0.39584660530090332 -0.917325079441070557
-0.00300000002607703209 2.84782791137695312 4.63101768493652344 0.857581973075866699 0.382181316614151001 -0.34422457218170166
-5.49700069427490234 2.68996763229370117 3.31512904167175293 -0.734267115592956543 0.176322653889656067 -0.655562460422515869
-0.00300000002607703209 2.78760194778442383 5.38666582107543945 0.975410044193267822 0.216492801904678345 -0.0413046069443225861
-5.49700021743774414 3.02451968193054199 4.92825984954833984 -0.965260624885559082 0.00735341757535934448 -0.261185407638549805
-0.00300047686323523521 1.84810447692871094 4.67773771286010742 0.965094447135925293 -0.151865467429161072 -0.213376715779304504
-1.40148401260375977 5.49700021743774414 5.26179790496826172 0.308520704507827759 0.94986337423324585 -0.0507399700582027435
-5.49700021743774414 4.6122441291809082 5.27146720886230469 -0.897259831428527832 0.4358634352684021 -0.0703406780958175659
-2.71282553672790527 5.49700021743774414 3.33455038070678711 0.0335788466036319733 0.701969444751739502 -0.71141505241394043
-5.49700021743774414 2.98364448547363281 3.19600391387939453 -0.659389793872833252 0.0793974250555038452 -0.747596919536590576
-5.49700069427490234 1.66351032257080078 1.91542840003967285 -0.673329412937164307 -0.0754607841372489929 -0.735481619834899902
-0.00300023844465613365 0.531215667724609375 5.33468866348266602 0.857638418674468994 -0.51240462064743042 -0.0435635186731815338
-5.49700069427490234 0.93409264087677002 2.5965266227722168 -0.750843346118927002 -0.313277184963226318 -0.581456542015075684
-3.59549617767333984 3.66965889930725098 4.37654876708984375 -0.226559266448020935 0.548934757709503174 -0.80457538366317749
-1.82657754421234131 2.33986639976501465 2.50718474388122559 0.00424636108800768852 -0.0895906463265419006 -0.995969593524932861
-0.00300000002607703209 3.05356884002685547 5.17916774749755859 0.952585697174072266 0.289215594530105591 -0.0945244506001472473
-5.49700021743774414 5.20006132125854492 2.84935569763183594 -0.672678112983703613 0.423392802476882935 -0.606830060482025146
-0.00300023844465613365 2.56279540061950684 4.62728309631347656 0.880093812942504883 0.315159201622009277 -0.355119079351425171
-5.49700021743774414 2.98632550239562988 2.83234310150146484 -0.644031345844268799 -0.0369726419448852539 -0.764105141162872314
-1.96128106117248535 5.49700021743774414 4.51175737380981445 0.185344740748405457 0.941784143447875977 -0.280517280101776123
-1.23947107791900635 -0.327753543853759766 0.00300000002607703209 0.0876508057117462158 -0.468701213598251343 -0.878997445106506348
-0.00299976160749793053 4.82677412033081055 3.48357439041137695 0.761977255344390869 0.454923689365386963 -0.460906833410263062
-5.49700021743774414 3.17358827590942383 4.499481201171875 -0.948498189449310303 -0.057353675365447998 -0.311547338962554932
-2.11895060539245605 5.49700021743774414 5.14282608032226562 0.419814884662628174 0.900679051876068115 -0.111949510872364044
-2.98215723037719727 5.49700021743774414 4.38929891586303711 -0.193966954946517944 0.883192658424377441 -0.42702174186706543
-5.49700021743774414 1.67495894432067871 1.60635018348693848 -0.612063229084014893 -0.0706951767206192017 -0.787642538547515869
-0.00299952318891882896 -0.686664819717407227 1.47069096565246582 0.473875850439071655 -0.620347261428833008 -0.624988734722137451
-5.49700021743774414 0.0764095783233642578 5.40625 -0.584393084049224854 -0.811356425285339355 -0.0136181805282831192
-5.49700021743774414 2.34429073333740234 3.97705554962158203 -0.878178834915161133 0.161121577024459839 -0.450379520654678345
-3.91084814071655273 5.49700021743774414 4.67388820648193359 -0.348387807607650757 0.915259838104248047 -0.202300101518630981
-0.00299976160749793053 1.4278266429901123 2.48468327522277832 0.634279608726501465 -0.402529746294021606 -0.660044848918914795
-5.49700021743774414 0.0930390357971191406 5.26843166351318359 -0.790916383266448975 -0.608940362930297852 -0.0603562667965888977
-0.00300023844465613365 2.01867389678955078 5.33286714553833008 0.98701322078704834 -0.147435501217842102 -0.0637779533863067627
-0.00300023844465613365 2.43442773818969727 5.22348976135253906 0.987551093101501465 0.122916914522647858 -0.0981542542576789856
-1.27191853523254395 5.49700021743774414 4.07906961441040039 0.24933016300201416 0.901166856288909912 -0.354588150978088379
-4.21513271331787109 1.2597123384475708 0.00300000002607703209 -0.293057501316070557 -0.180069133639335632 -0.93898475170135498
-0.00300000002607703209 5.21701526641845703 3.74253463745117188 0.705897629261016846 0.548922121524810791 -0.447652816772460938
-1.71606302261352539 3.72749948501586914 0.00300000002607703209 0.127875044941902161 0.29604637622833252 -0.946575164794921875
-0.301458120346069336 5.49700069427490234 2.14437580108642578 0.530779838562011719 0.438294589519500732 -0.7253761887550354
-1.67367911338806152 4.26119422912597656 0.00300047686323523521 0.176418676972389221 0.164363548159599304 -0.970495283603668213
-5.49699974060058594 1.62046718597412109 2.52159976959228516 -0.770616114139556885 -0.183077096939086914 -0.610437214374542236
-5.49700021743774414 2.25002908706665039 4.24839210510253906 -0.825996160507202148 -0.338815271854400635 -0.450482606887817383
-5.49700021743774414 0.247346639633178711 2.05840778350830078 -0.531885623931884766 -0.34920462965965271 -0.771462142467498779
-2.1372227668762207 5.49700021743774414 4.35956525802612305 0.0897367000579833984 0.938958048820495605 -0.332122176885604858
-0.00300023844465613365 1.64907491207122803 3.38083600997924805 0.843238770961761475 -0.0538835451006889343 -0.534831702709197998
-3.43179821968078613 -0.896503925323486328 0.00299952318891882896 -0.110778361558914185 -0.537277877330780029 -0.836098432540893555
-5.49700021743774414 -0.121155977249145508 1.45054721832275391 -0.431941717863082886 -0.389502912759780884 -0.813457965850830078
-0.00300000002607703209 3.91665315628051758 4.50542354583740234 0.894180417060852051 0.340578794479370117 -0.290598422288894653
-1.98732483386993408 5.49700021743774414 4.15486812591552734 0.123701728880405426 0.846429884433746338 -0.517932772636413574
-3.86104083061218262 3.14397215843200684 4.34786128997802734 -0.197746455669403076 0.393646925687789917 -0.897740721702575684
-0.00300023844465613365 1.35288131237030029 5.2189178466796875 0.978962540626525879 -0.184955641627311707 -0.0861614271998405457
-1.9256596565246582 0.202113628387451172 0.00300000002607703209 0.118709154427051544 -0.267922341823577881 -0.956099212169647217
-5.49700021743774414 4.90521144866943359 4.96935701370239258 -0.82195812463760376 0.550691545009613037 -0.145339846611022949
-5.49700021743774414 3.15184569358825684 3.82054638862609863 -0.904792547225952148 0.144658356904983521 -0.400530099868774414
-0.00300023844465613365 2.26943564414978027 3.67171812057495117 0.834502160549163818 -0.119078196585178375 -0.537983715534210205
-0.633888721466064453 4.47531747817993164 0.00300047686323523521 0.235529392957687378 0.409866362810134888 -0.881212472915649414
-0.00300000002607703209 1.72293126583099365 4.31271743774414062 0.828104853630065918 -0.212154105305671692 -0.51887667179107666
-0.00300000002607703209 4.49854755401611328 4.53394508361816406 0.66959381103515625 0.690761148929595947 -0.272934317588806152
-5.49700021743774414 2.08144950866699219 2.51181697845458984 -0.635902643203735352 0.0977680608630180359 -0.765551626682281494
-5.49700021743774414 1.15932488441467285 3.36366391181945801 -0.64588010311126709 -0.544740438461303711 -0.534880161285400391
-5.49700021743774414 4.7586517333984375 3.52374505996704102 -0.692288696765899658 0.556430935859680176 -0.459479033946990967
-5.49699974060058594 0.428956747055053711 4.05173301696777344 -0.783655345439910889 -0.536073267459869385 -0.313862621784210205
-3.64078545570373535 3.68498539924621582 4.39574718475341797 -0.469934254884719849 0.465457797050476074 -0.750007212162017822
-0.00300000002607703209 3.07942771911621094 4.76121664047241211 0.886537492275238037 0.381222575902938843 -0.262146264314651489
-3.57995891571044922 3.70979762077331543 4.35131454467773438 0.0205061398446559906 0.803167581558227539 -0.595400094985961914
-5.49700021743774414 2.81943655014038086 5.24767875671386719 -0.907036662101745605 0.413559854030609131 -0.0790746137499809265
-0.00300023844465613365 0.599708080291748047 1.82497596740722656 0.588217377662658691 -0.214307606220245361 -0.779790043830871582
-0.00299976160749793053 1.51060402393341064 4.68780422210693359 0.779920279979705811 -0.543339312076568604 -0.310655325651168823
-5.49700021743774414 3.36268496513366699 3.51489853858947754 -0.756868481636047363 0.213229477405548096 -0.617805242538452148
-3.73383164405822754 3.31022882461547852 4.4221038818359375 -0.496977776288986206 0.730232179164886475 -0.46880069375038147
-5.49700021743774414 4.87243175506591797 4.98498725891113281 -0.80888068675994873 0.568474769592285156 -0.15016135573387146
-4.38154029846191406 1.19368743896484375 0.00300047686323523521 -0.204873591661453247 -0.0990055501461029053 -0.973768293857574463
-2.77544307708740234 3.38871645927429199 2.53301405906677246 -0.234899789094924927 0.148958280682563782 -0.960538148880004883
-5.49700021743774414 2.83146810531616211 3.61074399948120117 -0.833520948886871338 0.18203185498714447 -0.521638929843902588
-0.00300000002607703209 0.240242481231689453 3.44015264511108398 0.587792754173278809 -0.665633499622344971 -0.459817022085189819
-0.860320568084716797 5.49700021743774414 3.70408344268798828 0.602578997611999512 0.69725191593170166 -0.388250380754470825
-2.0154716968536377 2.29686355590820312 2.58090472221374512 0.00456117652356624603 -0.200618982315063477 -0.979658722877502441
-5.49699974060058594 2.4476008415222168 4.11569833755493164 -0.907548010349273682 -0.0339168719947338104 -0.418576419353485107
-4.1138148307800293 3.14300656318664551 4.28386259078979492 -0.622117578983306885 -0.129390880465507507 -0.772157847881317139
-0.00299976160749793053 3.04368948936462402 4.68757915496826172 0.94735407829284668 0.0959086641669273376 -0.305486083030700684
-5.49700021743774414 -0.782331943511962891 3.87217330932617188 -0.612212061882019043 -0.701280415058135986 -0.365242540836334229
-0.00300023844465613365 1.75224781036376953 3.46203136444091797 0.825306057929992676 0.0580302588641643524 -0.561695992946624756
-0.00300000002607703209 3.99196338653564453 4.74241828918457031 0.749451935291290283 0.616543769836425781 -0.2412375807762146
-5.49700021743774414 1.33286643028259277 4.66091156005859375 -0.928105592727661133 -0.251474589109420776 -0.274555087089538574
